51.166542 51.239986 -9.34215 0.65857434 -0.74365264 0.11515433
50.88675 51.124634 -8.486932 0.65857434 -0.74365264 0.11515433
-49.825294 63.27258 -8.483963 -0.37918085 0.28793964 0.87938195
61.445614 64.033646 -7.975443 0.7411719 -0.068470754 0.6678144
22.130087 62.967617 -8.327606 0.863156 0.13044505 -0.4877968
32.999355 -19.453455 8.454777 0.85874003 0.3185239 -0.40138274
-12.690397 86.141 15.050189 -0.2285398 0.8366811 0.497729
15.693214 68.80424 -14.449594 0.8250348 0.41994122 -0.37810966
37.1982 60.220875 -8.563585 -0.22902833 0.830517 -0.507728
-12.505919 22.72884 29.141645 -0.5144843 -0.2832876 0.8093541
-27.498413 61.409645 -8.427135 0.031762492 0.45265093 -0.8911219
-12.764342 53.8742 -12.731066 0.22582328 0.66651833 -0.7104626
-11.496597 52.872894 -13.267479 0.22582328 0.66651833 -0.7104626
11.0404 56.814312 -12.527335 0.49111104 -0.5826635 -0.6475441
11.841997 57.27168 -12.330928 0.49111104 -0.5826635 -0.6475441
11.666416 56.90894 -12.137697 0.49111104 -0.5826635 -0.6475441
22.056486 61.66657 -8.505254 0.91189533 0.1571022 -0.37916452
58.834087 76.572716 -20.930964 0.7901064 0.10982084 0.60305166
58.715397 77.26181 -20.900948 0.7901064 0.10982084 0.60305166
58.396973 77.76095 -20.574652 0.7901064 0.10982084 0.60305166
8.619993 68.18789 35.97688 0.5173349 0.58463216 0.62495583
-29.728382 -48.370235 25.34189 -0.1795471 0.30744132 0.9344745
-31.066824 -48.073883 24.987226 -0.1795471 0.30744132 0.9344745
-31.320078 -49.114693 25.280993 -0.1795471 0.30744132 0.9344745
60.901455 78.55717 -31.699947 0.81086016 0.5851892 -0.007715762
9.602674 1.463093 18.92978 -0.9155338 -0.3434349 0.20940483
9.462821 1.981961 19.169304 -0.9155338 -0.3434349 0.20940483
9.410669 1.641184 18.3824 -0.9155338 -0.3434349 0.20940483
60.241264 69.598854 -20.831284 0.9641163 0.06477209 0.2574577
60.439945 68.97587 -21.418562 0.9641163 0.06477209 0.2574577
60.355354 69.82257 -21.314806 0.9641163 0.06477209 0.2574577
-10.090928 81.19968 -25.0994 -0.81075007 0.31780797 0.49161202
-9.954562 80.53095 -24.442205 -0.81075007 0.31780797 0.49161202
-9.802825 80.96469 -24.47236 -0.81075007 0.31780797 0.49161202
10.529688 35.386223 -9.968956 0.17815267 -0.6689072 -0.7216819
57.65393 80.2374 -21.42058 0.7566035 0.5520381 0.35043585
57.560158 80.12772 -21.045355 0.7566035 0.5520381 0.35043585
54.730522 52.826023 -15.924067 0.5921697 -0.5840425 -0.5551842
35.64684 57.657925 -8.295434 -0.2550405 -0.07387271 -0.96410435
22.23807 58.805527 -8.668075 0.9351342 -0.075280204 -0.3462037
-9.800405 84.10095 24.873512 -0.09291388 0.9817021 0.16621669
20.045835 58.270126 -8.984825 0.058243714 -0.69380873 -0.71780026
19.542902 58.493378 -9.241424 0.058243714 -0.69380873 -0.71780026
21.321154 57.894367 -8.930965 0.26292738 -0.6288316 -0.7317377
21.95163 57.247635 -8.148643 0.26292738 -0.6288316 -0.7317377
-56.20253 54.44267 -15.376702 -0.5150706 -0.7668052 0.38303018
-56.804356 54.545055 -15.981021 -0.5150706 -0.7668052 0.38303018
-55.840015 54.020622 -15.734134 -0.5150706 -0.7668052 0.38303018
22.12865 58.00428 -8.480899 0.8631625 -0.22362833 -0.45270386
-29.61838 -47.303986 25.036404 -0.14224046 0.2262805 0.96362066
-29.493233 -46.172424 24.78916 -0.14224046 0.2262805 0.96362066
19.554285 57.666634 -8.42094 0.1165057 -0.62287045 -0.77360123
18.530022 57.23649 -8.228862 0.1165057 -0.62287045 -0.77360123
-50.779312 57.430904 -8.338143 -0.7606913 -0.009588692 0.6490429
36.61773 58.09173 -8.90099 -0.48325714 -0.0872288 -0.87112206
35.898354 58.099632 -8.502706 -0.48325714 -0.0872288 -0.87112206
21.732649 56.485813 -7.824326 0.16130306 -0.45964143 -0.8733333
58.34891 56.06962 -7.458781 0.76024544 -0.6134613 0.21375726
18.980839 58.084682 -9.074113 0.13387328 -0.85118335 -0.50750846
-12.993519 78.540535 -9.711014 -0.32437646 0.94592255 -0.0032379783
-12.595146 78.67917 -9.119884 -0.32437646 0.94592255 -0.0032379783
-12.572869 78.68166 -10.622734 -0.32437646 0.94592255 -0.0032379783
20.702238 56.166622 -7.919334 0.18280412 -0.053131253 -0.9817126
4.194142 84.48938 26.666769 0.14064188 0.7956521 0.58920074
2.762525 84.42765 27.091854 0.14064188 0.7956521 0.58920074
3.406776 83.89374 27.659063 0.14064188 0.7956521 0.58920074
-14.373623 -2.678135 18.908743 0.4946085 -0.7137138 0.49595863
-15.182433 -3.246654 18.897219 0.4946085 -0.7137138 0.49595863
-14.470727 -3.104975 18.391335 0.4946085 -0.7137138 0.49595863
5.128931 84.53796 24.89801 0.38076988 0.87555635 0.29734716
5.706266 84.38257 24.61625 0.38076988 0.87555635 0.29734716
2.618521 85.99064 24.874949 0.21702261 0.85426736 0.4723647
-20.122398 31.477379 8.860933 -0.93801063 0.12029614 -0.3250613
52.709206 51.71898 -8.857545 0.17537706 -0.9616088 0.21107185
51.812714 51.680687 -8.287112 0.17537706 -0.9616088 0.21107185
37.0448 61.289394 8.626869 0.64847577 0.62725574 0.43131122
25.838121 -44.09337 9.621241 -0.02688422 0.85030925 -0.5255963
-25.499958 -52.246883 15.369065 0.8721291 -0.31362006 -0.37554404
20.96341 50.641228 -7.675994 0.83341384 -0.05158537 -0.5502365
20.353428 51.739418 -8.702857 0.83341384 -0.05158537 -0.5502365
-1.60164 73.15184 36.728146 -0.08038403 0.424416 0.9018922
1.606394 49.095585 -12.307063 0.5604279 -0.49673292 -0.66270417
1.886561 50.049625 -12.78524 0.5604279 -0.49673292 -0.66270417
2.034049 49.525986 -12.268018 0.5604279 -0.49673292 -0.66270417
27.65322 -32.410423 26.834208 0.653076 0.1413089 0.74399155
27.347864 -33.316414 27.274326 0.653076 0.1413089 0.74399155
27.6067 -33.411964 27.065268 0.653076 0.1413089 0.74399155
-46.93742 50.659622 -9.11407 -0.764849 -0.6416277 -0.05761809
-9.441951 84.22791 24.275845 -0.26992154 0.8752907 0.40125877
14.904908 37.941673 25.371075 0.4251174 -0.81769806 0.38813016
14.438332 37.92299 25.84275 0.4251174 -0.81769806 0.38813016
13.985822 37.960155 26.162842 0.17005663 -0.9221383 0.3474792
-55.855236 76.89758 -42.860115 0.026949357 0.7091084 -0.70458424
24.364902 49.34506 17.616034 0.7664867 -0.34173024 0.5438002
24.80125 50.30535 17.60446 0.7664867 -0.34173024 0.5438002
24.393282 50.078594 18.036995 0.7664867 -0.34173024 0.5438002
-18.371862 45.53552 -13.244556 -0.5581119 -0.2466218 -0.79226804
-54.276157 67.7092 -11.875792 -0.16040899 0.6521463 0.74092793
-55.920357 67.19205 -11.776573 -0.16040899 0.6521463 0.74092793
-4.82489 33.345352 -8.782232 -0.33503106 0.026376568 -0.9418378
-2.957382 34.676548 -9.409263 -0.33503106 0.026376568 -0.9418378
-3.119642 33.082314 -9.396191 -0.33503106 0.026376568 -0.9418378
13.51743 37.983463 26.62942 0.24286576 -0.92568135 0.29005218
2.366571 37.604515 -10.76845 -0.73805994 -0.6283194 -0.24593148
1.177581 37.9463 -9.904478 -0.052874554 -0.7968017 -0.60192305
33.070576 -26.056795 15.341087 0.9469258 -0.13987519 -0.28942433
32.926292 -26.973557 15.312087 0.9469258 -0.13987519 -0.28942433
16.970282 42.17812 -9.878225 0.62742263 -0.39150155 -0.67310274
15.776859 42.669563 -11.276498 0.62742263 -0.39150155 -0.67310274
17.028923 43.60097 -10.651147 0.62742263 -0.39150155 -0.67310274
34.182583 49.5278 -7.764714 -0.45891654 -0.29038167 -0.8396869
42.097836 69.56754 -10.766364 -0.6977118 0.6400061 0.32185477
42.35032 70.20079 -11.478243 -0.6977118 0.6400061 0.32185477
41.909035 69.88811 -11.813084 -0.6977118 0.6400061 0.32185477
-23.600977 48.913036 -8.8254 -0.7234472 -0.35859546 -0.5899436
-24.536627 49.26916 -8.15221 -0.42649472 -0.43924233 -0.7906759
25.018927 54.75572 19.064917 0.9850285 -0.1669835 -0.042840302
-22.276289 -34.393635 15.713077 0.93303436 -0.19170097 0.3044629
33.286976 -21.3578 18.24087 0.9571399 0.21302435 0.19622396
-17.570494 23.935083 24.40052 -0.80207723 -0.19691357 0.5638237
-34.7456 47.25574 -8.536755 0.20610063 -0.8796881 -0.42856908
34.810413 47.819965 -8.13029 -0.24912709 0.25323105 -0.9347779
19.623932 48.798386 -9.696094 0.87547565 -0.14430249 -0.4612148
-20.225042 79.41065 15.665897 -0.4927376 0.8421801 -0.21895733
-31.265972 47.861095 -8.339522 0.41981795 -0.77111596 -0.47867846
14.850176 37.525997 25.182945 0.66543424 -0.3787387 0.64323735
-20.233786 32.282047 19.303204 -0.82273847 -0.48775485 0.2918845
38.971638 54.49333 -14.121524 -0.98043144 -0.19677328 -0.005884896
38.955326 54.587234 -14.543931 -0.98043144 -0.19677328 -0.005884896
7.568556 69.21805 35.977814 0.12236661 0.15141776 0.98086655
6.423507 69.430786 36.087822 0.12236661 0.15141776 0.98086655
6.49142 68.84946 36.16909 0.12236661 0.15141776 0.98086655
-32.43351 47.79937 -8.425996 -0.05237718 -0.92754203 -0.37003028
14.867714 -35.524635 25.797297 -0.8156285 0.19913541 0.54322666
-35.64936 47.644726 -9.100868 0.017456574 -0.88089377 -0.47299203
-35.486263 47.460796 -8.752301 0.017456574 -0.88089377 -0.47299203
-36.31301 47.397495 -8.664923 0.017456574 -0.88089377 -0.47299203
25.948606 66.8326 16.299202 0.93294996 0.24066058 0.26774395
26.160242 67.16426 15.263652 0.93294996 0.24066058 0.26774395
39.339046 47.024982 -7.943151 0.5021 -0.7929009 -0.34525904
2.452329 37.929024 -11.460402 -0.56939924 -0.71489793 -0.40583915
3.024497 37.43048 -11.384965 -0.56939924 -0.71489793 -0.40583915
-23.640165 -46.686398 19.723198 0.9669244 0.25302473 -0.03218097
7.596612 68.72294 36.039833 0.12989238 0.13048306 0.982905
25.042044 16.792126 8.974816 0.37910983 0.83150446 -0.40604928
-41.527824 -26.87768 15.799728 -0.94981617 -0.25389516 0.18271965
-41.902782 -25.726305 15.45049 -0.94981617 -0.25389516 0.18271965
-45.108345 -50.634357 15.005022 -0.5500348 0.0885768 0.83043116
-44.38435 -50.987488 15.522225 -0.5500348 0.0885768 0.83043116
-22.285246 -36.1349 15.043083 0.94390374 -0.29492816 -0.14853697
-31.80714 -48.368526 24.821857 -0.32892257 0.32979518 0.88489836
21.359587 93.9587 -23.678806 0.64938265 0.22250786 0.7271812
20.899725 93.26282 -23.055212 0.64938265 0.22250786 0.7271812
21.252153 92.9925 -23.287222 0.64938265 0.22250786 0.7271812
-23.16055 46.47633 -8.514313 -0.86814934 -0.30350202 -0.39268717
7.668762 70.010086 36.019524 0.27773237 -0.08552672 0.9568437
14.111576 -36.97485 24.913612 -0.93854827 -0.08734998 0.33391163
-22.463581 45.948055 -9.331934 -0.8130605 -0.32152152 -0.48534158
-15.696011 75.53443 -8.658242 -0.7596419 0.56730676 -0.31797364
-16.064238 74.58337 -9.475369 -0.7596419 0.56730676 -0.31797364
-22.229576 43.878304 -8.365579 -0.79303503 -0.37486258 -0.48018065
-21.348545 43.244278 -9.325667 -0.79303503 -0.37486258 -0.48018065
-9.492523 44.398598 36.257328 -0.32043773 -0.08592415 0.9433645
-2.193123 86.26013 24.815943 0.0032138305 0.939006 0.34388572
-34.546364 47.700966 -9.138556 0.17512205 -0.81832093 -0.5474332
-23.18544 47.378334 -8.937144 -0.8639096 -0.31513572 -0.3928736
19.663216 -53.544502 10.064495 -0.26910388 -0.94996715 -0.15857317
19.158833 -53.39228 10.008533 -0.26910388 -0.94996715 -0.15857317
-40.55386 -33.62853 15.369032 -0.98693496 -0.110012844 0.11771406
10.917439 51.35188 36.072483 0.31079757 -0.3822978 0.870203
9.221542 55.43077 -12.56001 0.49108788 -0.6547336 -0.5745925
8.23512 55.05959 -12.980125 0.49108788 -0.6547336 -0.5745925
-16.862534 52.990173 -13.026334 -0.46374643 0.33285746 -0.8210634
-16.19841 52.414745 -13.634716 -0.46374643 0.33285746 -0.8210634
-16.839262 52.25167 -13.338865 -0.46374643 0.33285746 -0.8210634
-17.44565 20.618597 25.343948 -0.26848763 0.4702247 0.8407159
-34.414326 -13.615648 16.745611 -0.08223176 0.9234403 0.37482792
-34.960484 -13.517116 16.383043 -0.08223176 0.9234403 0.37482792
7.700184 1.182921 14.644565 -0.77440834 -0.6271345 0.083630614
29.437666 -10.557391 15.56321 0.7966812 0.1984086 0.5709055
15.18543 38.86029 -9.109651 0.64830303 -0.4342735 -0.62538767
-27.188755 4.424614 25.09866 -0.22954181 -0.3086383 0.9230672
-55.46543 72.89636 -50.936928 -0.46993914 -0.44681296 -0.7612591
-55.999233 73.56125 -50.99765 -0.46993914 -0.44681296 -0.7612591
-55.64206 73.965576 -51.455456 -0.46993914 -0.44681296 -0.7612591
0.799689 40.62011 -11.552148 -0.63664615 -0.1499751 -0.75643194
-62.31813 66.88661 -44.193172 -0.92954206 0.246759 -0.27397355
-62.486557 66.97677 -43.54053 -0.92954206 0.246759 -0.27397355
28.304184 46.1691 9.539909 -0.109750725 -0.83455586 0.5398808
28.977015 46.412254 10.052556 -0.109750725 -0.83455586 0.5398808
-5.221401 33.463894 -8.63448 -0.34875187 0.0832252 -0.93351257
-55.406147 74.01663 -26.886372 -0.5947115 0.7820728 0.18622659
-55.84359 73.943954 -27.978123 -0.5947115 0.7820728 0.18622659
-56.27019 73.54091 -27.647846 -0.5947115 0.7820728 0.18622659
8.34645 70.55197 35.906567 0.2012372 -0.047724433 0.9783793
-6.112329 34.944588 -7.884749 -0.4068227 -0.018314403 -0.9133235
7.57034 70.57732 35.98066 0.09743765 0.08484809 0.9916183
5.017922 34.468735 -7.868444 0.26491326 -0.10111377 -0.9589562
5.465758 34.515762 -7.749687 0.26491326 -0.10111377 -0.9589562
5.465758 34.910286 -8.125847 -0.24478541 -0.66906834 -0.701732
6.433408 34.869244 -8.954186 -0.32013205 -0.8807147 -0.34908035
-8.039652 87.58057 -27.187038 0.8584273 0.2155087 -0.46546602
-7.403713 86.73461 -26.405893 0.8584273 0.2155087 -0.46546602
-7.84796 86.53802 -27.31621 0.8584273 0.2155087 -0.46546602
-33.470577 63.069054 -11.475005 0.2679498 0.7745947 -0.57289255
33.130455 -46.582195 15.776643 0.67042196 0.72993153 0.13317084
-41.473255 -29.303545 15.492538 -0.8807624 -0.3694354 0.29626864
4.886708 30.86228 -8.230606 0.36489463 -0.20378046 -0.90847427
4.613495 29.990582 -8.144813 0.36489463 -0.20378046 -0.90847427
4.021921 30.501143 -8.496946 0.36489463 -0.20378046 -0.90847427
-4.576544 34.831352 -8.75948 -0.46400553 0.13883924 -0.87488425
35.25162 -2.165945 8.631098 0.99932045 0.0036553394 0.0366786
19.814499 78.58614 15.903429 0.7804866 0.6246452 0.025674066
9.27897 2.222558 19.362494 -0.45116264 -0.742417 0.49524656
-32.10143 61.537514 -11.583096 0.63585067 0.018704763 -0.7715854
-31.731434 62.004242 -11.266874 0.63585067 0.018704763 -0.7715854
-50.627518 62.31204 -8.529167 -0.3911539 0.28550872 0.8749191
-9.547178 80.599754 29.257849 -0.30888695 0.6623367 0.68256783
-42.13654 -51.111355 -8.6118 -0.009301437 0.80160844 -0.59777707
15.381202 -45.929512 29.57645 -0.33859476 0.63384223 0.69541186
16.299816 -45.358994 29.503716 -0.33859476 0.63384223 0.69541186
15.759504 -45.042892 28.952524 -0.33859476 0.63384223 0.69541186
21.831282 62.118397 -8.848633 0.844288 0.013687046 -0.53571486
-3.808439 28.549868 -8.1644 -0.15032955 -0.76946014 -0.6207512
-49.702785 81.735916 -44.54878 0.733485 -0.6336199 -0.24601938
-49.639656 81.469925 -43.675507 0.733485 -0.6336199 -0.24601938
-50.196407 80.97838 -44.06944 0.733485 -0.6336199 -0.24601938
7.266909 71.711174 35.637512 -0.3432336 0.30429894 0.8885904
-42.993347 -51.310394 -8.003649 -0.8571174 0.5151033 -0.0042948523
-2.50642 28.932877 -8.56848 -0.112034224 -0.6248199 -0.77268904
-3.454748 29.167118 -8.620394 -0.112034224 -0.6248199 -0.77268904
-57.335163 58.526672 -41.883667 0.3586729 -0.92648 0.113967456
-0.289946 28.409046 -8.228094 -0.030803049 -0.7985068 -0.6011973
0.444935 86.9053 -8.566101 0.062058624 0.32590672 -0.94336283
-6.262883 82.70232 29.244007 -0.23395517 0.7006731 0.6740343
8.531415 80.94839 -8.224051 0.52734476 0.81551564 -0.23841521
-42.561874 -51.55067 -8.983478 -0.27014756 0.7607935 -0.5900962
-41.250927 -52.501583 -8.311552 0.722153 -0.015141602 -0.69156766
-12.541086 80.13934 28.1523 -0.54972106 0.59282714 0.58852583
-41.446846 -52.96967 -8.363901 0.7978614 -0.27388787 -0.5370312
-43.865593 -53.40342 -8.466572 -0.88948214 -0.18053909 0.41979417
1.569738 24.58829 31.429388 -0.047360543 -0.09054062 0.994766
6.447525 3.189502 19.792162 -0.3669526 -0.8744697 0.31725147
5.911462 72.14881 36.157776 0.7453932 0.19097738 0.6386835
-53.88982 68.825226 -43.6409 0.6697929 -0.65466046 -0.35042444
-8.84969 43.520786 -14.961739 0.10872476 -0.13138704 -0.98535085
-9.27546 44.84369 -15.185115 0.10872476 -0.13138704 -0.98535085
-6.935593 43.515144 -14.749783 0.10872476 -0.13138704 -0.98535085
-3.698441 87.67859 -8.665075 -0.46980184 0.31002873 -0.82654005
15.8653 -28.375622 25.26641 -0.48658058 0.3393542 0.805033
-1.37008 86.88058 -8.815177 0.09411415 0.40822142 -0.9080185
-2.278762 86.86367 -8.916961 0.09411415 0.40822142 -0.9080185
1.462135 86.345474 -8.448099 0.1698825 0.10207396 -0.9801637
29.198912 -29.660301 25.60399 0.723544 0.0486669 0.6885605
29.120003 -30.175169 25.723299 0.723544 0.0486669 0.6885605
-7.464367 86.24956 -8.664498 -0.32633957 0.058816463 -0.94342095
-8.487953 85.95884 -8.328553 -0.32633957 0.058816463 -0.94342095
22.432047 42.659454 19.649038 0.97732407 -0.16283572 0.13535984
3.00131 54.988842 -23.194485 0.7178188 -0.68572634 -0.12048102
2.608489 54.773754 -24.310701 0.7178188 -0.68572634 -0.12048102
2.938173 55.07691 -24.071886 0.7178188 -0.68572634 -0.12048102
-7.263344 85.53247 -8.718299 -0.33367938 -0.022835525 -0.94241
-7.704246 85.11109 -8.551978 -0.33367938 -0.022835525 -0.94241
25.239292 -52.10198 25.242245 0.63045484 0.28913257 0.72036725
25.489946 -52.618702 25.230272 0.63045484 0.28913257 0.72036725
-1.395333 52.904747 -34.71257 -0.06900201 -0.68085784 -0.72915787
-1.590442 53.38376 -35.141388 -0.06900201 -0.68085784 -0.72915787
-0.966514 53.320526 -35.141388 -0.06900201 -0.68085784 -0.72915787
-36.78776 64.3084 -12.309402 0.41577792 0.9088921 -0.03230934
-37.690792 64.716255 -12.456929 0.41577792 0.9088921 -0.03230934
-37.091225 64.47446 -11.543316 0.41577792 0.9088921 -0.03230934
4.849682 45.245262 36.873444 -0.2313494 -0.6580198 0.71658033
-7.827605 84.68749 -8.660975 -0.44830444 0.34295738 -0.8254716
6.609094 38.200554 -12.792294 0.143192 -0.49305284 -0.85813457
6.586563 39.202053 -13.371478 0.143192 -0.49305284 -0.85813457
8.624522 38.14268 -12.422739 0.143192 -0.49305284 -0.85813457
-3.50774 56.4715 -42.677013 -0.72206026 -0.62043047 -0.30609632
-3.899706 56.396908 -41.6012 -0.72206026 -0.62043047 -0.30609632
-24.549026 63.575874 -10.805447 -0.86088055 0.08151751 -0.5022345
7.670021 81.98439 -8.791138 0.67118824 0.7334969 -0.10718558
-23.30713 42.68112 24.799093 -0.86956155 0.113568604 0.480588
-22.900764 42.236446 25.639442 -0.86956155 0.113568604 0.480588
-4.389024 5.948001 8.867011 0.07046576 -0.99263793 -0.09851071
-26.026154 -50.12031 25.814653 0.42585757 -0.08416684 0.9008669
-26.696539 -50.508915 26.095251 0.42585757 -0.08416684 0.9008669
-12.01065 79.9705 -8.554666 -0.7092359 0.6851015 -0.16619422
-22.382954 62.54506 -12.602287 -0.31668335 -0.0319937 -0.94799155
-23.06856 61.947575 -12.353091 -0.31668335 -0.0319937 -0.94799155
-22.812195 62.568893 -12.459701 -0.31668335 -0.0319937 -0.94799155
51.34106 59.80755 -26.912294 0.20321286 -0.65180546 -0.7306533
50.76686 59.146133 -26.481955 0.20321286 -0.65180546 -0.7306533
50.27684 59.75737 -27.163517 0.20321286 -0.65180546 -0.7306533
-40.76764 -0.519066 8.643547 -0.9348616 0.23764195 -0.26374245
-13.528001 78.28386 -9.048531 -0.5856354 0.79500675 0.15809956
-4.801198 73.573524 36.187855 -0.51471895 0.3447179 0.7850057
-5.289711 73.26087 36.004837 -0.51471895 0.3447179 0.7850057
-15.171967 76.22726 -8.514956 -0.61474556 0.5763423 -0.53843987
-15.143103 75.47019 -9.358268 -0.61474556 0.5763423 -0.53843987
12.163505 76.95783 -8.898988 0.88803226 0.45614466 0.05771326
-32.745296 -51.40235 24.676756 -0.45782155 0.010353041 0.8889838
53.915287 52.47421 -10.709676 0.6824068 -0.7115066 -0.16756915
-14.734763 77.1047 -8.828084 -0.78232706 0.6065669 -0.14156581
-1.172625 0.999592 28.732655 0.1215251 -0.5336549 -0.8369254
-0.365441 0.986197 28.858402 0.1215251 -0.5336549 -0.8369254
-16.957794 58.0573 -12.846766 -0.09281846 0.07337958 -0.9929755
-16.88304 59.053013 -12.780172 -0.09281846 0.07337958 -0.9929755
-15.771749 59.063763 -12.883256 -0.09281846 0.07337958 -0.9929755
-61.089516 74.00468 -38.087257 -0.84903216 0.13132104 0.5117609
-60.943535 73.382 -37.685287 -0.84903216 0.13132104 0.5117609
-60.62593 73.718025 -37.244595 -0.84903216 0.13132104 0.5117609
50.23236 72.85533 -8.77903 0.102318875 0.6616646 0.74278575
-18.119238 71.82293 -9.014399 -0.7739196 0.31856975 -0.5473223
-17.769836 71.957275 -9.43026 -0.7739196 0.31856975 -0.5473223
-17.465136 72.75091 -9.28221 -0.73502076 0.48518836 -0.47364202
17.016506 70.08599 -10.355597 0.75193036 0.63972265 -0.15923485
17.478596 69.61545 -10.063938 0.75193036 0.63972265 -0.15923485
17.297398 69.524864 -11.283501 0.75193036 0.63972265 -0.15923485
49.205612 72.67879 -8.79797 -0.44016695 0.73718905 0.5126454
-31.91121 -49.591602 25.142082 -0.5956636 -0.023610657 0.80288684
-16.803785 73.771164 -9.007766 -0.7284856 0.50424975 -0.4637251
14.937468 72.775475 -9.188705 0.7713623 0.63553786 -0.033043206
-20.55517 -26.754772 9.067468 0.90389705 -0.2902297 -0.3142241
-20.49529 -26.925535 9.39744 0.90389705 -0.2902297 -0.3142241
-16.676252 29.662285 26.174574 -0.86961174 0.047203295 0.4914747
18.288887 -23.152002 25.268654 -0.40515697 0.42806292 0.80784273
49.69587 72.99485 -8.971144 -0.25015372 0.7339839 0.63141966
15.48104 77.05639 27.871283 0.78162384 0.34215593 0.5215299
15.311723 76.84668 28.262623 0.78162384 0.34215593 0.5215299
15.691426 76.701035 27.789108 0.78162384 0.34215593 0.5215299
31.993809 -32.70409 20.77614 0.9902524 -0.058416385 0.12644254
28.622246 -22.31482 25.243656 0.52564937 0.21574284 0.8228899
53.25437 71.89028 -8.572074 0.29053584 0.672141 0.6810399
52.603706 72.29871 -9.224625 0.13713922 0.8811508 0.45251092
52.65696 71.858925 -8.384386 0.13713922 0.8811508 0.45251092
-41.773064 -22.79943 15.274021 -0.95474267 -0.013060503 0.2971461
26.034294 -7.808219 19.748632 0.68174547 -0.37350282 0.6290619
26.434673 -7.079598 19.747337 0.68174547 -0.37350282 0.6290619
38.004536 56.16875 -10.762088 -0.75774515 -0.012290565 -0.6524349
38.249413 55.084015 -11.026056 -0.75774515 -0.012290565 -0.6524349
37.229702 55.82835 -9.855775 -0.75774515 -0.012290565 -0.6524349
-1.509076 89.87375 15.097265 0.1762922 0.9578145 0.22696327
48.034424 72.1168 -8.775429 -0.120982535 0.5674583 0.81446564
29.656668 -23.345133 25.021715 0.51780134 0.35189337 0.77977747
58.559937 71.3038 -9.398227 0.79647404 0.6002012 0.07340085
37.35141 -53.83282 8.736278 -0.06681136 -0.98396105 -0.16539922
-41.381897 -29.765446 15.197639 -0.8828337 -0.36406964 0.2967455
-53.30536 68.70129 -13.398813 -0.096913554 0.9281647 0.35933006
-53.67999 68.425446 -12.787345 -0.096913554 0.9281647 0.35933006
-52.540695 68.8064 -13.464083 -0.096913554 0.9281647 0.35933006
-31.938879 -49.139668 25.04421 -0.55494493 0.123049684 0.8227362
44.94073 70.7723 -8.908427 -0.43212762 0.74789834 0.5038985
-53.0236 75.19672 -43.578007 0.85519195 0.19729358 0.4792932
20.466022 2.347364 24.5184 0.10243796 0.062495165 0.9927743
19.338972 2.116211 24.649244 0.10243796 0.062495165 0.9927743
19.976498 1.361853 24.630949 0.10243796 0.062495165 0.9927743
16.998432 -7.923812 19.422995 -0.35255626 -0.5126176 0.78289676
-21.407318 69.48854 -8.934557 -0.5283925 0.68450856 -0.50224435
-7.116677 72.02368 36.141335 -0.12581982 0.35157496 0.92766607
16.971645 41.385723 28.619099 0.6573216 0.31810355 0.68318266
-43.097305 -53.38108 15.441633 -0.43474287 -0.8140318 0.38516337
-43.846348 -52.966133 15.473151 -0.43474287 -0.8140318 0.38516337
18.330305 68.720955 -8.983478 0.5569152 0.7729636 -0.3039288
21.584225 64.30499 -8.786409 0.7724882 0.3612032 -0.5222971
15.504185 16.32467 24.928116 0.6155069 0.099961706 0.78176653
-25.060062 59.14794 -10.033168 -0.50934553 0.19005874 -0.8393121
-55.34115 66.88113 -48.06497 0.7456407 -0.036938608 -0.66532356
-21.642525 -20.243734 9.400229 0.9839583 0.17464904 0.03638268
20.143185 66.75749 -9.653156 0.8362161 0.49743283 -0.23087499
9.267376 5.566061 24.325554 0.12312164 -0.73162246 0.67049944
-44.3254 -53.0225 15.097223 -0.23856495 -0.73111427 0.639186
61.55374 66.46604 -9.374124 0.8321841 0.36650023 0.4161097
-43.684532 65.83758 -8.659358 -0.55769557 0.77339745 -0.30138338
23.385923 -20.71487 25.315739 -0.18753883 0.5937621 0.78248054
-40.23478 66.31353 -9.43304 -0.060866416 0.99149674 0.11501938
-42.450108 66.32932 -8.687658 -0.0037093558 0.9862473 -0.16523477
-42.931206 66.2578 -8.660336 -0.007946413 0.9627314 -0.27034262
-3.980588 6.648611 18.913338 -0.3450835 -0.9227573 -0.17157
-35.09705 65.225716 -8.757529 0.14491682 0.91241175 -0.38275826
-19.603552 71.014206 -8.774569 -0.5464503 0.762181 -0.34709096
-39.86944 66.29824 -8.873607 0.15819305 0.9662519 0.2033032
40.021877 64.92776 -9.007974 -0.9221181 0.31384912 -0.22626717
-14.259877 74.39586 -17.34202 -0.79156244 0.4608633 -0.40129036
-14.704255 74.02063 -16.896399 -0.79156244 0.4608633 -0.40129036
-14.334575 74.82467 -16.702208 -0.79156244 0.4608633 -0.40129036
40.436535 65.599014 -8.784902 -0.9488894 0.25708666 0.18307203
-25.361431 65.00816 -8.496261 -0.8294811 0.3817722 -0.4076898
-16.43902 -3.823998 18.90703 0.5419589 -0.66532344 0.5134444
-16.493917 -3.220233 19.747337 0.5419589 -0.66532344 0.5134444
-17.192728 -3.718169 19.83973 0.5419589 -0.66532344 0.5134444
-25.057049 65.48151 -8.795373 -0.8210907 0.18727073 -0.53920287
-13.4332 77.793045 -11.685273 -0.79826427 0.6021708 -0.012822402
-13.955436 77.11344 -11.089067 -0.79826427 0.6021708 -0.012822402
-13.161857 78.164215 -11.146828 -0.79826427 0.6021708 -0.012822402
-44.303993 65.56671 -8.771291 -0.38789877 0.9185553 -0.07609569
-37.780045 65.59494 -10.308561 0.17429806 0.9462121 -0.2725855
-29.982122 -53.12711 15.70527 -0.16874224 -0.9753579 0.14213708
-37.24232 -14.760334 17.402067 -0.6001569 0.6226444 0.5021211
-37.468998 -15.249197 17.737337 -0.6001569 0.6226444 0.5021211
-48.958843 65.37135 -9.17479 -0.1683245 0.5974844 0.7840148
-25.427309 -48.442158 25.304642 0.26276758 0.53947103 0.7999526
-24.986864 -48.539444 25.225573 0.26276758 0.53947103 0.7999526
-25.480059 -47.641724 24.782173 0.26276758 0.53947103 0.7999526
-52.321114 66.40413 -10.918557 -0.25248104 0.56647444 0.78444886
-51.2481 66.03552 -10.307017 -0.25248104 0.56647444 0.78444886
7.332096 58.68842 -14.97475 0.69762856 -0.687487 -0.20168284
8.075882 59.32144 -14.559783 0.69762856 -0.687487 -0.20168284
-8.266937 83.24837 -11.436459 -0.7436956 0.66714615 0.042811807
-21.565945 -31.685095 11.173339 0.95368373 -0.21089284 -0.21450278
33.98146 -47.9019 16.063322 0.73864955 0.2785461 0.6138477
33.7756 -48.445248 16.55759 0.73864955 0.2785461 0.6138477
34.48782 -48.03537 15.514579 0.73864955 0.2785461 0.6138477
17.472672 -53.292698 15.030334 -0.5027124 -0.85670865 -0.11545755
-27.94976 48.447903 15.076319 -0.83207726 -0.16070554 0.53086835
-27.661348 48.30882 15.486269 -0.83207726 -0.16070554 0.53086835
-39.449753 65.8912 -16.006628 0.8425371 0.38064778 0.38110164
-39.561916 65.11856 -14.986941 0.8425371 0.38064778 0.38110164
-39.2463 64.94696 -15.513309 0.8425371 0.38064778 0.38110164
-44.68378 66.88737 -11.115967 0.27519146 0.63783425 0.71933115
-45.540302 67.69148 -11.501304 0.27519146 0.63783425 0.71933115
-6.928562 84.675476 26.008377 -0.11861591 0.9091251 0.39927658
-7.263422 84.42074 26.488918 -0.11861591 0.9091251 0.39927658
-6.407894 84.74383 26.007423 -0.11861591 0.9091251 0.39927658
-32.71487 -5.997447 18.409678 -0.55010784 -0.54245704 0.63491863
-32.43877 -6.620956 18.116188 -0.55010784 -0.54245704 0.63491863
-32.059967 -6.127372 18.866096 -0.55010784 -0.54245704 0.63491863
16.467043 5.318827 24.959679 -0.042551816 -0.14628075 0.9883275
-31.380953 63.370903 -9.38942 0.3858672 0.7568841 -0.5274779
2.916952 -0.290025 37.13919 0.99494946 -0.012600669 0.09958297
-31.405348 -47.075607 24.76707 -0.3810816 0.10725068 0.9182995
-29.331861 66.72527 15.000381 -0.94273806 -0.011819891 -0.33332434
-49.175358 64.17258 -8.441016 -0.36107865 0.21748188 0.90682065
13.467896 -46.40261 24.96094 -0.9198688 0.39215192 0.007632577
-35.509583 53.95015 -14.374302 0.37656492 -0.3268885 -0.86680025
-34.675755 53.004734 -13.655525 0.37656492 -0.3268885 -0.86680025
-35.596188 53.103653 -14.092694 0.37656492 -0.3268885 -0.86680025
-29.305637 62.02463 -8.896385 0.5591188 0.5869664 -0.5855396
-3.812028 73.51248 36.433163 -0.19932194 0.38735223 0.90012723
-4.259597 54.52617 -31.228418 -0.4793002 -0.30706298 -0.82218224
-4.855948 54.41351 -30.838694 -0.4793002 -0.30706298 -0.82218224
-4.582746 55.10217 -31.255156 -0.4793002 -0.30706298 -0.82218224
-27.10234 61.384277 -8.518249 -0.4072665 0.33825868 -0.84836024
-39.56647 2.096232 8.580016 -0.905614 0.4007362 -0.13882975
30.139675 -53.189976 16.343605 -0.054792143 -0.99825656 0.021948619
16.503256 8.601356 24.469889 0.20609227 0.023958847 0.9782392
60.79251 60.156322 -8.351834 0.81484514 -0.15508913 0.5585471
-44.18564 67.09551 -11.376288 0.10909974 0.66402787 0.73970556
-27.32315 58.992416 -8.994828 -0.00036073496 -0.007447709 -0.9999722
-0.388575 -0.856535 30.078009 0.0519579 -0.68570745 -0.7260204
-9.492939 65.51859 37.65274 -0.2662478 0.22072142 0.9382932
-7.854722 66.12264 37.975502 -0.2662478 0.22072142 0.9382932
-9.472573 66.98567 37.313408 -0.2662478 0.22072142 0.9382932
35.66181 58.5746 -8.614892 -0.45322022 -0.12129712 -0.8831072
5.481261 73.06889 36.078056 0.32945696 0.41518575 0.8479852
-1.94071 36.19157 -9.750169 -0.2723311 -0.13422404 -0.95279574
-1.952885 37.159637 -9.883064 -0.2723311 -0.13422404 -0.95279574
-1.274239 37.086903 -10.066791 -0.2723311 -0.13422404 -0.95279574
-51.258877 58.433872 -8.945591 -0.7399686 -0.03096318 0.67192835
-51.141193 57.489582 -8.859505 -0.7399686 -0.03096318 0.67192835
-11.423018 47.665398 36.52761 -0.6912546 -0.113937505 0.71357214
19.61676 57.243122 -8.134914 0.02888554 -0.5565188 -0.8303327
-48.20645 55.92519 -28.583078 0.9592499 0.041159973 -0.2795449
-48.136505 56.3855 -28.275284 0.9592499 0.041159973 -0.2795449
-47.932926 55.95871 -27.63955 0.9592499 0.041159973 -0.2795449
-32.67361 14.347852 15.814341 -0.7105224 0.68727976 0.15101127
-33.12207 13.957783 15.47957 -0.7105224 0.68727976 0.15101127
-17.327372 40.522247 28.780966 -0.049950223 -0.9987507 -0.0014582552
-18.461964 40.5793 28.56961 -0.049950223 -0.9987507 -0.0014582552
-18.289125 40.57163 27.90338 -0.049950223 -0.9987507 -0.0014582552
17.901484 57.243122 -8.384439 0.5537009 -0.10184934 -0.8264636
-0.772376 37.714573 -10.268186 -0.0072127236 -0.30027822 -0.9538244
-7.747844 57.17525 -15.741145 -0.6508985 -0.6521057 -0.38870218
-7.74126 57.689278 -16.614527 -0.6508985 -0.6521057 -0.38870218
-15.44812 84.22078 17.657328 -0.6254893 0.7080898 0.32767645
19.187943 56.814312 -8.143853 0.08633967 -0.06561858 -0.9941024
-33.12334 -52.860394 15.522999 -0.13219102 -0.98491627 0.11164871
17.445545 -45.588623 30.24479 -0.14377835 0.5381724 0.83048075
56.927372 54.59962 -8.472978 0.6581577 -0.7302186 0.18332814
7.17156 2.227298 8.759524 -0.7793363 -0.55193204 -0.2966581
14.515973 58.54552 -11.542501 0.1594259 -0.5112491 -0.8445162
15.09319 58.060886 -11.14015 0.1594259 -0.5112491 -0.8445162
14.413841 57.840904 -11.135224 0.1594259 -0.5112491 -0.8445162
-15.344079 79.75112 25.19292 -0.90046084 0.4307321 0.060333114
19.288204 54.969612 -9.217587 0.566471 0.28809154 -0.7720841
8.901955 80.32799 -10.35899 0.6703861 0.7038776 0.2348163
9.193105 80.29344 -11.086652 0.6703861 0.7038776 0.2348163
8.758497 80.79407 -11.346533 0.6703861 0.7038776 0.2348163
33.42745 54.354633 -8.515096 -0.23558474 0.1994108 -0.9511757
24.61057 -52.817276 15.127972 0.008649447 -0.99990994 0.010263292
-27.086826 53.518112 -9.274133 0.30288982 -0.24448694 -0.92113185
-26.682793 54.5548 -9.416434 0.30288982 -0.24448694 -0.92113185
-50.600002 54.87431 -9.023556 -0.80620015 -0.38452646 0.449645
33.390915 53.306213 -8.557201 -0.45266703 0.03331934 -0.8910569
-24.657698 49.929367 25.757948 -0.8792802 -0.13342874 0.45723423
-24.561737 51.04327 26.26754 -0.8792802 -0.13342874 0.45723423
51.367847 51.541546 -8.757146 0.537878 -0.7976064 -0.27296746
29.414268 -37.033344 15.600821 0.8847557 0.020898476 -0.4655864
-37.86912 53.925488 -15.486272 0.45391294 -0.356869 -0.8164603
-37.90463 53.045845 -15.121527 0.45391294 -0.356869 -0.8164603
-39.21544 53.87033 -16.210651 0.45391294 -0.356869 -0.8164603
34.382294 51.747414 -8.760995 -0.34979025 -0.27079865 -0.89683604
52.283257 51.654736 -8.726026 0.11464387 -0.97684073 0.1806626
26.454752 -44.032692 24.953644 0.89307255 -0.09191382 0.440424
-23.930527 52.151157 -9.64595 -0.50276023 -0.417691 -0.75681335
-24.606552 51.976818 -9.100639 -0.50276023 -0.417691 -0.75681335
53.922215 79.66018 -42.00248 -0.4634744 -0.8833902 -0.06937712
48.227856 50.646084 -8.656034 -0.39609715 -0.6919058 0.6036335
10.585768 79.86702 29.310938 0.5235744 0.6178819 0.5865934
26.03534 -44.193756 25.34384 0.6891196 -0.041866932 0.7234372
60.460415 68.094185 -10.367796 0.8711801 0.45831072 0.17605838
59.788746 69.2646 -10.091015 0.8711801 0.45831072 0.17605838
5.036939 7.071404 24.505402 0.112738885 -0.9294668 0.35125697
47.405647 49.95977 -8.095067 0.718405 -0.68199974 -0.13700661
-2.249225 62.66491 -41.102875 -0.46374193 0.8251901 -0.32249752
-2.684662 62.540344 -40.79546 -0.46374193 0.8251901 -0.32249752
-2.638431 62.832153 -40.115273 -0.46374193 0.8251901 -0.32249752
48.776394 49.95321 -9.159238 -0.2611102 -0.9514165 -0.16318129
48.209698 50.164654 -9.485268 -0.2611102 -0.9514165 -0.16318129
49.018467 49.947037 -9.510598 -0.2611102 -0.9514165 -0.16318129
-57.57051 72.40349 -21.419207 -0.038861796 0.94235426 -0.33235252
-56.9652 72.29411 -21.800108 -0.038861796 0.94235426 -0.33235252
-57.57051 72.25225 -21.848026 -0.038861796 0.94235426 -0.33235252
34.80249 53.52954 -8.992292 -0.30124038 0.048742518 -0.9523017
-28.60168 51.927654 -9.344633 0.31983346 -0.50141746 -0.80391985
-29.049505 50.488518 -8.559392 0.24784586 -0.52232486 -0.8159345
48.10949 50.420532 -8.878677 0.75826085 -0.61407655 0.21897602
47.492443 50.167023 -8.882404 0.37356332 -0.90635717 -0.19740087
21.498951 -12.739315 19.925453 -0.23416728 0.106511325 0.9663442
37.11179 49.12036 -8.920553 -0.42262918 0.05955825 -0.9043436
37.422283 48.25146 -9.122881 -0.42262918 0.05955825 -0.9043436
17.98814 2.335182 24.681606 -0.054029036 -0.60406107 0.79510444
27.335482 14.709281 9.026882 0.7714723 0.6256981 -0.11546613
-46.320198 -50.771908 14.527061 -0.3513705 -0.12734333 0.92753565
-1.66941 49.341263 -11.998173 -0.47301856 -0.60080016 -0.64443195
-0.790817 49.095585 -12.414023 -0.47301856 -0.60080016 -0.64443195
-4.175147 6.825003 18.58728 -0.4167464 -0.88010705 -0.22745106
52.96159 74.076904 -10.6696 0.34472197 0.6716533 0.6557809
53.24313 74.52289 -11.274374 0.34472197 0.6716533 0.6557809
-5.282978 85.25316 24.416039 -0.34319094 0.7185969 0.60484594
40.543278 56.365955 -18.185755 -0.395678 0.10504613 -0.9123619
41.31367 56.224796 -18.536116 -0.395678 0.10504613 -0.9123619
40.81705 55.723866 -18.378414 -0.395678 0.10504613 -0.9123619
23.031149 -52.796345 16.709738 0.020181816 -0.9992758 0.032255232
15.248502 37.414303 24.877998 0.51192486 -0.33453327 0.7912145
35.860153 47.81551 -8.363032 -0.2615415 -0.0058366987 -0.9651746
-6.816752 4.811697 9.167787 0.34791803 -0.8327896 -0.43059778
-33.487453 47.867496 -9.400939 0.11400574 -0.8617253 -0.4944009
-33.537907 48.26426 -10.104118 0.11400574 -0.8617253 -0.4944009
-19.546556 79.57799 14.218786 -0.6240049 0.7808802 -0.029050235
-32.26995 48.145405 -9.05724 0.113244414 -0.85928637 -0.4988012
1.86684 46.335083 -13.366634 -0.46071637 0.38233575 -0.8009743
26.267822 49.213524 15.347704 0.6589656 -0.48479238 0.57510066
-42.084446 48.09514 -8.718129 0.14036508 -0.98041457 -0.13814794
22.61465 52.724457 24.889393 0.8307134 0.0004732295 0.55670005
36.957825 47.816647 -8.844488 -0.20435023 -0.59858936 -0.7745526
37.97502 47.773174 -9.079259 -0.20435023 -0.59858936 -0.7745526
-13.930608 50.451656 36.379204 -0.32376966 -0.2622766 0.9090568
39.101223 47.38031 -8.554666 0.3131862 -0.7631603 -0.565244
24.063774 45.999935 15.082245 0.8975023 -0.37370512 0.23416653
22.29913 -11.997364 19.93227 -0.09767111 0.09623526 0.990555
22.490435 -13.336518 20.081236 -0.09767111 0.09623526 0.990555
-22.404825 -36.976818 15.924541 0.9750809 0.012728435 0.22148399
-22.299574 -36.852314 15.454019 0.9750809 0.012728435 0.22148399
-22.420845 -35.097527 15.887068 0.9750809 0.012728435 0.22148399
-37.178802 47.34153 -8.79549 0.08475967 -0.9866394 -0.13913484
14.331791 -37.750717 25.019125 -0.96913075 -0.08348539 0.23198237
-21.299402 44.430645 -10.086941 -0.7797492 -0.3350865 -0.52887446
14.662527 -36.43702 25.720968 -0.8407034 0.052130252 0.5389806
-22.557968 -9.992105 15.311785 0.42976236 -0.72221696 0.5419475
-22.983223 -10.501291 14.970451 0.42976236 -0.72221696 0.5419475
19.629608 2.90954 24.670412 0.12996463 -0.07399466 0.98875374
12.733096 75.288925 -15.982805 0.7457387 0.6283587 -0.22144775
12.326849 75.81978 -15.844569 0.7457387 0.6283587 -0.22144775
16.688906 40.99293 -8.945411 0.63835496 -0.5675773 -0.5199605
-19.53661 40.91215 -8.825555 -0.8565094 -0.22428334 -0.46485355
-18.478992 40.082954 -10.021909 -0.8037324 -0.23898302 -0.54488665
-16.560411 91.59845 -27.511024 -0.5619466 -0.750574 -0.34764168
-17.155651 92.393936 -28.266338 -0.5619466 -0.750574 -0.34764168
-16.361395 91.74092 -28.140327 -0.5619466 -0.750574 -0.34764168
-16.816618 38.369137 -9.179965 -0.71807724 -0.49378398 -0.49045128
57.172306 71.62304 -37.14185 -0.7620734 -0.242063 -0.6005412
-6.346574 7.047159 20.9809 0.4675671 -0.68428576 0.55958384
2.861529 36.681896 -9.290121 0.11815748 -0.60337263 -0.78865737
3.32167 36.371197 -8.983478 0.11815748 -0.60337263 -0.78865737
2.892851 36.23103 -8.940487 0.11815748 -0.60337263 -0.78865737
2.473188 36.17941 -9.143327 0.41957688 -0.53787327 -0.73119605
3.730756 36.234848 -9.054673 -0.3505595 -0.8674956 -0.35292983
-3.539422 36.659866 -9.134375 -0.4827249 0.032912284 -0.8751534
-3.658792 35.560986 -9.109858 -0.4827249 0.032912284 -0.8751534
-4.274295 36.631214 -8.730104 -0.4827249 0.032912284 -0.8751534
-5.973104 36.15575 -9.319384 0.565606 -0.7388514 -0.3663172
12.68413 36.767353 -9.853163 0.52235794 -0.58173287 -0.6234814
10.642105 39.43324 -12.556782 0.22164117 -0.45163023 -0.8642369
8.812144 39.35358 -12.984464 0.22164117 -0.45163023 -0.8642369
10.615056 40.695618 -13.223409 0.22164117 -0.45163023 -0.8642369
-3.845547 -2.924294 54.146084 0.006234206 0.7326502 0.6805768
-4.394286 36.22737 -8.688513 -0.37990773 -0.5324286 -0.7564323
-4.825879 36.659866 -8.776171 -0.37990773 -0.5324286 -0.7564323
4.531959 34.64144 -8.161255 0.36934963 -0.39044854 -0.8432857
5.036939 35.04266 -8.125847 0.36934963 -0.39044854 -0.8432857
32.483013 -26.71451 9.797166 0.93695116 -0.3481611 -0.030105988
31.65075 -31.039013 15.585388 0.8498649 -0.29913688 -0.43387416
51.218555 83.38161 -31.2316 -0.9285109 0.24962331 0.27487382
51.478237 83.4687 -30.433496 -0.9285109 0.24962331 0.27487382
3.888731 35.084217 -8.522902 0.3289014 -0.074984975 -0.9413826
3.750489 35.802216 -8.628392 0.3289014 -0.074984975 -0.9413826
-11.427372 34.295643 -9.230055 -0.2506527 -0.8625628 -0.4394984
-4.38271 37.025784 -9.074086 0.05904782 -0.64671904 -0.7604392
19.521624 3.96967 25.062685 0.36686885 -0.2897328 0.88400346
-7.015148 44.166912 36.554157 0.08679675 -0.56454915 0.8208231
-22.698551 -6.644962 19.944975 0.39534855 -0.6040689 0.69195396
17.807121 7.340848 24.995338 -0.33493477 0.1262533 0.93374455
3.638781 34.159695 -8.826571 0.549334 0.12295992 -0.8265066
-9.168303 81.03245 28.940153 -0.7218876 0.48892072 0.48972926
33.349686 4.929166 8.856503 0.8833481 0.46669793 -0.04346513
11.071923 64.35145 -12.356803 0.8222552 0.15508062 -0.54758245
11.063227 65.39993 -12.072921 0.8222552 0.15508062 -0.54758245
11.425502 66.15676 -11.314584 0.8222552 0.15508062 -0.54758245
8.133526 34.779236 -9.571921 -0.1846073 -0.8554169 -0.48392367
4.179308 4.927309 20.696032 -0.4348847 -0.66903085 0.60272133
-31.057926 57.507008 -11.51559 0.5825826 0.353722 -0.7317639
-32.491234 58.198494 -12.322443 0.5825826 0.353722 -0.7317639
17.34316 -8.853678 19.154913 -0.35851598 -0.19950627 0.9119559
-1.555315 -5.415455 36.78134 -0.191747 -0.9066991 -0.3756725
-13.355853 35.01673 -9.169182 -0.36281005 -0.7012095 -0.6137378
-13.283983 36.172417 -10.532064 -0.36281005 -0.7012095 -0.6137378
-6.585466 23.635334 31.620825 -0.13407578 0.015277551 0.99085337
34.750565 0.702946 10.285705 0.9736926 0.15379795 0.16813362
-0.790151 -5.414808 36.88176 0.09996956 -0.9051455 -0.41317993
18.749794 48.743145 -10.718604 0.712545 -0.1254391 -0.69032216
19.165882 48.817715 -10.302671 0.712545 -0.1254391 -0.69032216
-10.788437 34.386276 -9.59852 -0.04360142 -0.9030837 -0.42724562
4.023276 33.063576 -8.674999 0.48616493 0.049894147 -0.87244153
-48.891296 65.08144 -33.105907 0.7708534 -0.0018772822 -0.63700974
-48.234283 64.41365 -32.30888 0.7708534 -0.0018772822 -0.63700974
-49.394604 64.74096 -33.713963 0.7708534 -0.0018772822 -0.63700974
11.939047 79.03529 29.269442 0.46582225 0.6141642 0.6370337
3.598685 32.78016 -8.859836 0.39755103 0.0028398482 -0.91757566
-42.029007 -52.96966 -9.051467 0.69068474 -0.42538938 -0.58480644
2.155221 33.20848 -9.473254 0.35878834 -0.11709673 -0.926045
30.794264 9.357556 15.724258 0.8534675 0.20086418 0.48088124
30.574656 8.714838 16.382483 0.8534675 0.20086418 0.48088124
3.108502 29.629463 -8.526878 0.29910916 -0.2821305 -0.91155696
-26.90736 -7.535677 19.629946 -0.12916687 -0.52388865 0.8419363
-29.510658 58.431908 15.010628 -0.97095686 -0.0721615 -0.22811252
-29.55598 57.317314 15.556134 -0.97095686 -0.0721615 -0.22811252
-42.141052 -51.906292 -8.977713 0.26519015 0.29895076 -0.9166802
-43.019417 -52.23738 -9.339794 0.26519015 0.29895076 -0.9166802
20.840128 -21.174639 25.282791 -0.24889714 0.51880884 0.81785554
0.372595 28.897646 -8.608507 0.11728608 -0.5958639 -0.7944748
29.038534 51.722553 14.806759 0.036205586 -0.45284465 0.89085406
-58.79118 59.720654 -34.021202 -0.32196516 -0.93673575 0.1373487
-58.519512 59.72039 -33.38617 -0.32196516 -0.93673575 0.1373487
-59.32357 59.983063 -33.479538 -0.32196516 -0.93673575 0.1373487
-13.699382 85.4896 15.465645 -0.48940477 0.8346771 -0.25258103
-14.606072 85.21711 16.32199 -0.48940477 0.8346771 -0.25258103
23.869581 54.87536 24.8602 0.7908684 -0.26240957 0.55287284
25.777985 -52.96203 24.998152 0.8139481 -0.13510506 0.565009
61.654964 68.76888 -24.917004 0.8436115 -0.34414813 0.41216716
62.230404 69.17969 -25.751785 0.8436115 -0.34414813 0.41216716
61.830914 69.36335 -24.780767 0.8436115 -0.34414813 0.41216716
-3.513972 30.222004 -9.012518 -0.19204421 -0.3286929 -0.9247053
-1.142579 28.950106 -8.608217 -0.015189968 -0.61532867 -0.78812426
-30.980621 -52.55339 25.23543 -0.47078478 -0.11918921 0.87416
-30.940649 -52.05009 25.32558 -0.47078478 -0.11918921 0.87416
-43.841248 -52.973804 -8.546959 -0.8913487 0.4301549 -0.14305347
3.837118 20.690989 30.8261 0.169251 -0.034059063 0.9849843
-14.017758 77.65224 -9.937952 -0.78577626 0.5297141 -0.31930965
-13.440927 78.19464 -10.457641 -0.78577626 0.5297141 -0.31930965
-13.906292 77.326126 -10.753252 -0.78577626 0.5297141 -0.31930965
27.026054 -10.906242 18.264574 0.47712284 -0.10663551 0.8723432
3.323693 35.79882 -8.683886 0.52052563 0.14809541 -0.8409048
2.52298 34.58841 -9.392703 0.52052563 0.14809541 -0.8409048
0.23836 29.5533 -8.961927 0.12730508 -0.36654714 -0.9216489
-23.828997 -51.642094 24.979744 0.49652404 0.7828128 0.3750574
-42.394108 -52.964573 -9.393889 0.6825964 0.022185292 -0.7304587
-43.766792 -53.391956 -8.983478 -0.9820943 0.020614421 -0.18725899
-2.919618 87.47587 -8.808813 -0.1316156 0.1848936 -0.9739054
-3.740306 86.84665 -8.791854 -0.13984391 0.15604347 -0.97780067
-3.024345 86.76044 -8.941997 -0.050384372 0.56381387 -0.8243636
-3.624541 86.263664 -9.482475 -0.062395584 0.9312691 -0.35894942
-3.800791 86.44184 -8.989571 -0.062395584 0.9312691 -0.35894942
-3.024746 86.366394 -9.320211 -0.062395584 0.9312691 -0.35894942
-5.348367 86.43707 -8.739199 0.1988118 0.37793627 -0.9042334
-6.801953 85.27414 -8.913964 -0.49302638 0.5255902 -0.6933109
-6.089261 86.01649 -8.858008 -0.49302638 0.5255902 -0.6933109
-5.867665 85.455864 -9.440591 -0.49302638 0.5255902 -0.6933109
-6.329371 87.22116 -8.689361 0.071630515 0.15227513 -0.98573893
1.614464 85.42425 -8.983255 0.5383775 0.611334 -0.58001757
-5.497934 85.96489 -8.976223 -0.41075742 0.7590865 -0.5050407
-5.254691 85.80638 -9.412297 -0.41075742 0.7590865 -0.5050407
9.339239 50.850388 36.689724 0.83819824 -0.057172555 0.5423606
16.632729 -26.474224 25.1582 -0.6520472 0.34471363 0.67528296
-6.72717 86.02542 -8.779227 -0.120193176 0.1141023 -0.9861715
-39.376026 -27.5803 20.05013 -0.6867177 0.022766147 0.72656757
-6.467645 85.1163 -9.412297 -0.43784556 0.7299034 -0.5249117
-4.447267 86.156334 -8.961397 -0.33578613 0.6978987 -0.6326018
-5.391136 85.65796 -9.775777 -0.4833374 0.8589102 -0.16928703
25.122625 -9.155842 19.915728 0.42085293 -0.20395045 0.8839044
26.485239 -9.134475 19.271877 0.42085293 -0.20395045 0.8839044
25.813658 -8.562126 19.7237 0.42085293 -0.20395045 0.8839044
-7.73305 84.367134 -8.97076 -0.6397692 0.6511299 -0.40831992
5.264974 83.70719 -9.096044 0.5976202 0.8017207 0.009699843
8.890274 83.48425 25.126715 -0.090632394 0.95931506 0.2673955
9.280826 83.42906 25.082748 0.16915673 0.92415833 0.34251618
22.643347 4.37747 24.773703 0.13403542 -0.16675654 0.9768453
-21.06186 56.510136 -11.589259 -0.13658617 -0.1565155 -0.97818565
-20.714218 57.00131 -11.716392 -0.13658617 -0.1565155 -0.97818565
-20.156868 56.597553 -11.729612 -0.13658617 -0.1565155 -0.97818565
-19.100601 76.13129 25.440393 -0.66193527 0.55808014 0.500388
5.675291 83.46974 -10.244037 0.6515582 0.7547032 0.076778665
-9.154499 82.73441 -9.697201 -0.73096234 0.6626052 -0.16324326
50.86441 50.43881 -10.861968 -0.18551645 -0.929237 0.3195343
50.49167 50.382046 -11.243447 -0.18551645 -0.929237 0.3195343
50.57164 50.154274 -11.8594 -0.18551645 -0.929237 0.3195343
6.88074 82.68318 -9.113029 0.51962346 0.8531244 -0.046584826
23.457808 60.4101 25.08425 0.42442325 0.17610332 0.8881737
24.207945 59.56635 24.893084 0.42442325 0.17610332 0.8881737
23.811178 61.01905 24.794647 0.42442325 0.17610332 0.8881737
8.513115 80.95238 -9.185028 0.77211046 0.6353738 -0.012065239
-52.89032 76.37489 -33.055588 0.5762911 0.6941844 0.43127316
-4.839597 5.679441 9.447462 0.22992675 -0.9389486 -0.25594765
-12.115783 51.668484 36.61299 -0.56801057 -0.13675676 0.81157964
-12.134045 50.852116 36.462646 -0.56801057 -0.13675676 0.81157964
-11.529863 50.86178 36.88713 -0.56801057 -0.13675676 0.81157964
-26.266783 71.82293 16.776417 -0.72874707 0.5884978 0.35013998
-25.72924 72.25177 17.17443 -0.72874707 0.5884978 0.35013998
10.056026 79.44407 -9.382514 0.65590096 0.6996663 0.2833038
-11.702559 79.95895 -9.284641 -0.740395 0.5901216 -0.32182562
10.251877 79.63377 -10.477327 0.67189467 0.70794266 0.21765752
15.851165 -48.734966 16.451488 -0.886439 0.0062113306 -0.4628037
16.179682 -47.68984 15.836285 -0.886439 0.0062113306 -0.4628037
10.924555 78.46665 -8.782623 0.664746 0.71958447 0.20077565
-41.807404 -24.123089 15.10058 -0.9879581 0.15472084 -0.0004933791
30.802753 -32.010754 15.068863 0.9471241 -0.17689125 -0.26770392
-23.218622 -20.14886 16.371332 0.794204 0.40439355 0.45354804
-22.996101 -19.976706 15.82818 0.794204 0.40439355 0.45354804
-23.480064 -19.491356 16.242895 0.794204 0.40439355 0.45354804
-25.503258 19.960068 16.874226 -0.7020091 0.66085315 0.26543635
-24.020283 21.375135 17.27323 -0.7020091 0.66085315 0.26543635
-25.77094 72.25177 16.745611 -0.6505937 0.7567861 0.06326667
-14.837638 89.21257 -25.535221 -0.38925627 -0.6695175 -0.6326341
-14.966623 88.654335 -24.865076 -0.38925627 -0.6695175 -0.6326341
-15.542901 89.62373 -25.536411 -0.38925627 -0.6695175 -0.6326341
47.88042 73.617226 -10.479924 -0.24579284 0.84211755 0.48002493
46.842205 73.49465 -10.7965 -0.24579284 0.84211755 0.48002493
47.1647 73.13575 -10.00174 -0.24579284 0.84211755 0.48002493
-14.856621 76.555855 -9.248019 -0.9020169 0.3701946 -0.2220847
14.648641 -23.442144 8.804306 -0.7357462 0.21955927 -0.6406804
51.452892 73.46077 -9.799938 0.0692245 0.6386926 0.76634175
52.14573 73.858734 -10.194199 0.0692245 0.6386926 0.76634175
13.579185 75.213234 -9.985176 0.63879114 0.74842054 0.17836046
-0.107201 6.072878 8.684765 -0.14287317 -0.97536355 0.16808678
22.96523 17.007235 8.12108 0.34385365 0.89471453 -0.28504494
46.414883 72.235054 -9.595562 -0.45469695 0.6521009 0.6066424
-4.371356 21.147305 31.186577 -0.04118573 -0.32996875 0.94309294
-14.937253 40.008057 -12.898748 -0.3516583 -0.5039012 -0.788936
-18.496653 71.235725 -9.319801 -0.26567706 0.8848554 -0.38268343
43.856052 49.11443 -10.872975 0.038474377 -0.88693863 -0.46028203
43.25078 49.446842 -11.564111 0.038474377 -0.88693863 -0.46028203
