-0.0759743 0.151547 -0.579976 -0.007773186 -0.85753584 -0.5143654
-0.0790718 0.182988 -0.615599 -0.063920915 -0.7537855 -0.6540042
-0.154044 0.222564 -0.638941 -0.06358328 -0.5984266 -0.7986506
-0.0792455 0.219987 -0.642965 -0.06358328 -0.5984266 -0.7986506
-0.0775425 0.260206 -0.661002 -0.007359934 -0.4089318 -0.9125353
-0.213772 0.26767 -0.647803 -0.3750451 -0.35929015 -0.8545476
-0.21995 0.228648 -0.628685 -0.3750451 -0.35929015 -0.8545476
-0.144378 0.302534 -0.665208 -0.15960214 0.11470008 -0.9804953
-0.202463 0.304851 -0.656009 -0.1501982 0.12721157 -0.9804375
-0.0750102 0.301309 -0.668637 -0.0052831178 -0.1823117 -0.98322654
-0.0643107 0.550463 0.0321785 -0.14618486 0.4788597 0.8656347
-0.0606884 0.60785 0.00104436 -0.14618486 0.4788597 0.8656347
-0.126715 0.537337 0.0111468 -0.36233932 0.32004356 0.8753755
-0.0987466 0.656786 -0.062447 -0.48197198 0.60693246 0.6319305
-0.0504326 0.666442 -0.034872 -0.48197198 0.60693246 0.6319305
-0.0819636 0.707011 -0.0978848 -0.48197198 0.60693246 0.6319305
-0.0403517 0.7183 -0.0719016 -0.54366136 0.5551605 0.62946737
-0.171165 0.605799 -0.0764289 -0.4980827 0.5428315 0.67620087
-0.142824 0.650926 -0.0969906 -0.43496013 0.58504915 0.6844905
-0.126096 0.69557 -0.127071 -0.5443329 0.5974095 0.58890027
-0.191637 0.550233 -0.0477524 -0.74268556 0.31204823 0.5924897
-0.209701 0.569968 -0.0807895 -0.74268556 0.31204823 0.5924897
-0.185308 0.513743 -0.0172354 -0.5168755 0.3369193 0.78697205
-0.253217 0.578269 -0.474783 -0.9399926 0.2596466 -0.22135384
-0.258514 0.602197 -0.445199 -0.9564945 0.11809834 -0.2667789
-0.237614 0.630468 -0.469873 -0.5154834 0.23168555 -0.824984
-0.230899 0.696193 -0.415496 -0.8816391 0.4153333 -0.22407752
-0.240943 0.662224 -0.43894 -0.8816391 0.4153333 -0.22407752
-0.246529 0.67248 -0.397952 -0.8816391 0.4153333 -0.22407752
-0.254771 0.635976 -0.4207 -0.9175982 0.33777666 -0.20957199
-0.224501 0.676789 -0.452578 -0.46409196 0.42681384 -0.7761756
-0.212896 0.714905 -0.428435 -0.7834062 0.48482937 -0.38886407
-0.199042 0.926972 -0.236591 -0.6719656 0.45180196 0.58680254
-0.201014 0.943338 -0.25145 -0.6719656 0.45180196 0.58680254
-0.214224 0.916672 -0.246046 -0.6719656 0.45180196 0.58680254
-0.216965 0.931825 -0.261167 -0.6789907 0.45338118 0.57742286
-0.2255 0.918412 -0.287909 -0.9060669 0.41487768 0.083182216
-0.226436 0.912723 -0.26973 -0.9060669 0.41487768 0.083182216
-0.21544 0.938681 -0.279423 -0.9060669 0.41487768 0.083182216
-0.17745 0.953646 -0.260405 0.16512187 0.88274336 0.43988523
-0.180783 0.946411 -0.244635 0.16512187 0.88274336 0.43988523
-0.155831 0.94592 -0.253016 0.16512187 0.88274336 0.43988523
-0.159856 0.939686 -0.239651 0.1711118 0.8721502 0.45833912
-0.179801 0.930945 -0.23207 -0.29814112 0.5904065 0.75002146
-0.182289 0.937359 -0.304334 0.23619981 0.8473163 -0.4756729
-0.191876 0.948989 -0.288378 0.23619981 0.8473163 -0.4756729
-0.165912 0.939303 -0.292739 0.23619981 0.8473163 -0.4756729
-0.173109 0.951035 -0.277835 0.21363783 0.8151118 -0.5384716
-0.1537 0.943252 -0.269054 0.36632904 0.9245282 -0.10512282
-0.207634 0.937732 -0.29671 -0.75978875 0.5329916 -0.37234512
-0.216862 0.918936 -0.303965 -0.7577258 0.52277243 -0.39059022
-0.196917 0.927676 -0.311546 -0.18090196 0.74848145 -0.6380046
-0.204856 0.767832 -0.258627 -0.73795414 0.67445827 -0.023017207
-0.199084 0.77337 -0.281405 -0.73795414 0.67445827 -0.023017207
-0.209996 0.761876 -0.268358 -0.73795414 0.67445827 -0.023017207
-0.201734 0.767127 -0.28955 -0.8049015 0.56758016 -0.17316581
-0.191438 0.774734 -0.312022 -0.69242495 0.7176525 -0.07431452
-0.207814 0.759869 -0.30299 -0.69242495 0.7176525 -0.07431452
-0.195536 0.768708 -0.323732 -0.70190364 0.70276123 -0.11600866
-0.198135 0.804412 -0.300184 -0.9129039 -0.3143385 -0.26038
-0.192387 0.789092 -0.301842 -0.9129039 -0.3143385 -0.26038
-0.203233 0.797472 -0.273932 -0.9129039 -0.3143385 -0.26038
-0.199221 0.78193 -0.2764 -0.9328041 -0.19240534 -0.30472386
-0.202175 0.775482 -0.251997 -0.937483 0.34735367 -0.021701587
-0.181068 0.796668 -0.322844 -0.6416581 0.032073203 -0.7663199
-0.165819 0.804418 -0.335288 -0.6416581 0.032073203 -0.7663199
-0.178221 0.788374 -0.325575 -0.6416581 0.032073203 -0.7663199
-0.162591 0.796641 -0.337706 -0.6107054 -0.0072935424 -0.7918243
-0.18742 0.811743 -0.321532 -0.808801 -0.2966004 -0.50780827
-0.178357 0.783728 -0.331262 -0.68428344 0.7175717 -0.1297965
-0.180956 0.7796 -0.34144 -0.6824716 0.72128105 -0.118263796
-0.161743 0.793141 -0.342758 -0.6620472 0.5594491 -0.49870864
-0.168503 0.781447 -0.210541 -0.4414394 0.5704678 0.6926022
-0.174268 0.789156 -0.220565 -0.4414394 0.5704678 0.6926022
-0.18859 0.771476 -0.215131 -0.4414394 0.5704678 0.6926022
-0.192516 0.777938 -0.227759 -0.5876412 0.63150185 0.5058491
-0.181336 0.804317 -0.228606 -0.4533734 0.2434043 0.85744214
-0.158595 0.817014 -0.220186 -0.4533734 0.2434043 0.85744214
-0.151415 0.801648 -0.215482 -0.29305515 0.15203185 0.9439306
-0.162292 0.776737 -0.200861 -0.35631418 0.6897068 0.63035285
-0.153638 0.772539 -0.191376 -0.35631418 0.6897068 0.63035285
-0.137434 0.789176 -0.20042 -0.35631418 0.6897068 0.63035285
-0.12548 0.786281 -0.190531 -0.3553464 0.68930167 0.6313416
-0.186175 0.766882 -0.204739 -0.47766095 0.75709844 0.44569284
-0.12229 0.805309 -0.211386 -0.13901947 0.7579622 0.63731223
-0.114773 0.801816 -0.205592 -0.13901947 0.7579622 0.63731223
-0.102838 0.815304 -0.21903 -0.13901947 0.7579622 0.63731223
-0.0963023 0.812563 -0.21585 -0.034710392 0.7206138 0.69246733
-0.103071 0.800257 -0.198013 -0.27852732 0.76056087 0.5864894
-0.128262 0.813355 -0.215464 -0.12125516 0.23832533 0.96358615
-0.135327 0.828572 -0.217894 -0.14241964 0.09126634 0.9855897
-0.108345 0.822919 -0.221075 0.024990743 0.46663824 0.8840952
-0.140844 0.802002 -0.341998 -0.30104044 0.75947607 -0.57668954
-0.143329 0.804627 -0.337252 -0.30104685 0.75894034 -0.5773909
-0.113814 0.810725 -0.339255 -0.3040003 0.9479105 -0.09512945
-0.13845 0.801677 -0.350685 -0.3040003 0.9479105 -0.09512945
-0.119159 0.809804 -0.331351 -0.3040003 0.9479105 -0.09512945
-0.127696 0.819206 -0.325202 0.3750815 0.219798 -0.9005569
-0.147191 0.8121 -0.335056 0.3750815 0.219798 -0.9005569
-0.134346 0.834135 -0.324328 0.3750815 0.219798 -0.9005569
-0.153713 0.826966 -0.334024 0.3685978 0.22433561 -0.90211374
-0.0911506 0.822276 -0.28966 0.65892714 0.5082711 -0.5545047
-0.10501 0.817882 -0.310157 0.65892714 0.5082711 -0.5545047
-0.0961567 0.829666 -0.288835 0.65892714 0.5082711 -0.5545047
-0.109848 0.825231 -0.308777 0.64142597 0.5269631 -0.55756843
-0.116614 0.840248 -0.308051 0.5885708 0.30145106 -0.7501411
-0.0934554 0.817549 -0.318853 -0.25959867 0.9636417 -0.06327031
-0.100185 0.816042 -0.313185 -0.26294288 0.9631787 -0.056105655
-0.086003 0.820458 -0.291304 0.2197815 0.9187985 -0.32787997
-0.0786961 0.822795 -0.269513 0.29700354 0.9337539 -0.19973111
-0.084054 0.824638 -0.268864 0.29700354 0.9337539 -0.19973111
-0.0699464 0.823757 -0.248502 -0.14509016 0.98887527 0.032778177
-0.0710179 0.824335 -0.270682 -0.14509016 0.98887527 0.032778177
-0.0780919 0.822576 -0.248928 -0.14509016 0.98887527 0.032778177
-0.0891348 0.832003 -0.268429 0.9097158 0.4150257 -0.0130762905
-0.0959818 0.847028 -0.267898 0.9097158 0.4150257 -0.0130762905
-0.0888081 0.831892 -0.249223 0.9097158 0.4150257 -0.0130762905
-0.0956349 0.846841 -0.248877 0.9094553 0.41561383 -0.012499507
-0.095203 0.828981 -0.232883 0.43156084 0.5116173 0.74296904
-0.0899479 0.821575 -0.232115 0.52169913 0.44562522 0.72749454
-0.102029 0.843892 -0.232989 0.8342374 0.384708 0.3950286
-0.084018 0.819324 -0.230668 -0.0965704 0.9848467 0.14405286
-0.0751675 0.819879 -0.228529 -0.0965704 0.9848467 0.14405286
-0.246443 0.756953 -0.257453 0.017653227 0.9794036 -0.20113887
-0.226075 0.759994 -0.240858 0.017653227 0.9794036 -0.20113887
-0.231902 0.754223 -0.26947 0.017653227 0.9794036 -0.20113887
-0.216972 0.759952 -0.252956 -0.20058414 0.96745175 -0.15428281
-0.208076 0.764415 -0.241789 -0.5193483 0.85139954 0.07345822
-0.223444 0.760451 -0.217689 -0.06886286 0.99087304 0.11588174
-0.240714 0.760641 -0.229576 -0.06886286 0.99087304 0.11588174
-0.24364 0.757848 -0.207433 -0.06886286 0.99087304 0.11588174
-0.265103 0.760852 -0.220189 0.05962225 0.98936546 0.13266978
-0.264144 0.760816 -0.243923 0.09955178 0.9835726 -0.15058036
-0.205912 0.761992 -0.209879 -0.32277745 0.83564544 0.4444225
-0.20189 0.765574 -0.22074 -0.44652075 0.8857475 0.12676972
-0.215759 0.757673 -0.200462 -0.037693854 0.9837655 0.17545557
-0.201854 0.770051 -0.234112 -0.7795404 0.59530205 0.19476189
-0.277858 0.727498 -0.319523 -0.09868248 0.86717427 -0.4881295
-0.256224 0.744786 -0.293184 -0.09868248 0.86717427 -0.4881295
-0.249966 0.723503 -0.332259 -0.09868248 0.86717427 -0.4881295
-0.234872 0.742799 -0.306286 -0.22469485 0.84016246 -0.49359828
-0.278995 0.751255 -0.279238 0.060791057 0.9396776 -0.33661604
-0.317986 0.708047 -0.333577 -0.24432184 0.17598946 -0.9535904
-0.284726 0.698216 -0.343913 -0.24432184 0.17598946 -0.9535904
-0.258236 0.693552 -0.356883 -0.23602095 0.65518415 -0.71765435
-0.37536 0.738148 -0.30116 -0.31438273 0.47575256 -0.82147616
-0.358205 0.712515 -0.324745 -0.35760507 0.4913705 -0.79414964
-0.343965 0.756617 -0.269721 -0.058207273 0.9772708 -0.20384733
-0.390758 0.753705 -0.27032 -0.058207273 0.9772708 -0.20384733
-0.355751 0.762428 -0.238497 -0.058207273 0.9772708 -0.20384733
-0.402685 0.758643 -0.236201 -0.08756424 0.98109204 -0.17260054
-0.300161 0.759231 -0.259113 0.081286006 0.9529063 -0.2921682
-0.311167 0.763685 -0.236173 -0.017804863 0.98173326 -0.18942729
-0.23327 0.750984 -0.191422 -0.10679486 0.88692474 0.44939882
-0.277376 0.753251 -0.197126 -0.0040517403 0.9181397 0.39623618
-0.183529 0.754714 -0.188935 -0.082537435 0.54385185 0.8351124
-0.181848 0.741315 -0.180043 -0.082537435 0.54385185 0.8351124
-0.248651 0.737773 -0.18066 -0.04191829 0.6599121 0.7501725
-0.352617 0.756796 -0.208565 -0.037497707 0.9813427 0.18857485
-0.303456 0.759588 -0.213776 -0.03539453 0.98083365 0.1916055
-0.409003 0.736167 -0.174314 -0.17880957 0.8691334 0.46112284
-0.409429 0.752424 -0.202781 -0.20259914 0.84905547 0.4879122
-0.39942 0.710994 -0.155057 0.04786552 0.33006445 0.942744
-0.329845 0.712932 -0.159268 0.04786552 0.33006445 0.942744
-0.252112 0.713887 -0.166078 -0.02624646 0.52364737 0.85153073
-0.178779 0.718135 -0.16643 -0.02624646 0.52364737 0.85153073
-0.106741 0.782082 -0.178969 -0.23644076 0.72526044 0.6466013
-0.0845451 0.798015 -0.188581 -0.240858 0.7248845 0.6453912
-0.0499681 0.812176 -0.199395 -0.17299776 0.8497984 0.49791005
-0.0705006 0.811753 -0.205807 -0.17299776 0.8497984 0.49791005
-0.0602661 0.797425 -0.177797 -0.17299776 0.8497984 0.49791005
-0.128352 0.75368 -0.16956 -0.27844623 0.5201556 0.8074068
-0.140544 0.766364 -0.181936 -0.27844623 0.5201556 0.8074068
-0.0771688 0.744134 -0.128582 -0.5501859 0.57319397 0.60724306
-0.122404 0.729951 -0.151266 -0.50692827 0.5318259 0.67836934
-0.0359638 0.781745 -0.13792 -0.23377419 0.75193787 0.6163921
-0.0372542 0.755486 -0.106376 -0.23377419 0.75193787 0.6163921
-0.0313039 0.800824 -0.16616 -0.27938044 0.84971774 0.44713134
-0.0258744 0.814456 -0.19275 -0.19842379 0.8880348 0.41475537
-0.0438017 0.818098 -0.377412 -0.07404064 0.9611938 -0.26575267
-0.0352238 0.828719 -0.341387 -0.07404064 0.9611938 -0.26575267
-0.0269807 0.832763 -0.306956 -0.17101878 0.9824511 -0.07444753
-0.0505691 0.828853 -0.304368 -0.17101878 0.9824511 -0.07444753
-0.0647564 0.824008 -0.337021 -0.16762902 0.9831404 -0.073044874
-0.0968568 0.789376 -0.411772 -0.13900968 0.7037111 -0.69675463
-0.0494105 0.797681 -0.413491 -0.14742137 0.6969597 -0.7017935
-0.134148 0.794627 -0.38492 -0.3653224 0.8124499 -0.454384
-0.140375 0.776566 -0.412207 -0.3653224 0.8124499 -0.454384
-0.168022 0.778755 -0.386065 -0.3653224 0.8124499 -0.454384
-0.176513 0.760515 -0.410655 -0.37600914 0.8016217 -0.4647793
-0.105446 0.812324 -0.352131 -0.320515 0.9428417 -0.09121235
-0.134862 0.801108 -0.364702 -0.320515 0.9428417 -0.09121235
-0.163948 0.787613 -0.366372 -0.3951781 0.8655778 -0.30758616
-0.0829065 0.820245 -0.328154 -0.22330676 0.97376144 -0.04384953
-0.0673729 0.8251 -0.299446 -0.22330676 0.97376144 -0.04384953
-0.0222752 0.824379 -0.219341 -0.06443728 0.97446746 0.21508375
-0.0209585 0.83068 -0.246717 -0.056538016 0.9735523 0.22135788
-0.0431316 0.822381 -0.222498 -0.18373409 0.91810554 0.3511751
-0.0427143 0.830406 -0.274631 -0.16438682 0.98636276 -0.008090764
-0.0223763 0.833445 -0.275661 -0.14777474 0.989021 0.000188696
-0.0571055 0.825864 -0.248034 -0.16382648 0.984498 0.06264583
-0.0589761 0.827121 -0.27268 -0.16382648 0.984498 0.06264583
-0.0611506 0.820889 -0.225684 -0.14072599 0.92035234 0.36489418
-0.220893 0.723503 -0.390265 -0.78182465 0.55282724 -0.2883268
-0.20182 0.742487 -0.402976 -0.76525664 0.57480013 -0.2898051
-0.192333 0.761236 -0.378584 -0.6167323 0.7190224 -0.32038745
-0.238328 0.704586 -0.373617 -0.6919802 0.56279105 -0.45213905
-0.229147 0.73046 -0.348619 -0.5879224 0.66020536 -0.46741438
-0.202503 0.759013 -0.342238 -0.66714877 0.732985 -0.13283591
-0.217964 0.748268 -0.323878 -0.66714877 0.732985 -0.13283591
-0.185497 0.772855 -0.357643 -0.6139763 0.75800323 -0.22014613
-0.208154 0.830042 -0.298948 -0.8106412 -0.29242206 -0.507297
-0.197796 0.836731 -0.320106 -0.8120096 -0.30891934 -0.4951861
-0.20855 0.866089 -0.317157 -0.5937394 -0.13785784 -0.7927602
-0.182638 0.844163 -0.332751 -0.5937394 -0.13785784 -0.7927602
-0.193702 0.87269 -0.329392 -0.5930951 -0.13659862 -0.79346013
-0.207473 0.823979 -0.249259 -0.9504981 -0.25377804 0.1793044
-0.216553 0.856661 -0.251136 -0.9504981 -0.25377804 0.1793044
-0.212209 0.824662 -0.273398 -0.9504981 -0.25377804 0.1793044
-0.22169 0.856724 -0.273536 -0.93696576 -0.27614713 0.21409792
-0.225435 0.891324 -0.293612 -0.9987699 0.007909059 -0.048949633
-0.227222 0.886884 -0.273083 -0.9961362 0.040418886 -0.07796906
-0.221713 0.885753 -0.253374 -0.9631828 -0.15387928 0.22045419
-0.202088 0.898609 -0.32219 -0.63791716 0.007579517 -0.7700677
-0.216036 0.894273 -0.311279 -0.6162479 0.00056767405 -0.78755194
-0.144889 0.85895 -0.323167 0.59110254 0.2864166 -0.75403136
-0.127225 0.865094 -0.306986 0.59110254 0.2864166 -0.75403136
-0.113654 0.869597 -0.287244 0.7229188 0.37251133 -0.5819138
-0.126841 0.897388 -0.285836 0.7229188 0.37251133 -0.5819138
-0.140188 0.893495 -0.304854 0.72175467 0.37318727 -0.5829249
-0.164181 0.851772 -0.332764 -0.04220423 0.100676395 -0.9940237
-0.17602 0.88052 -0.329499 -0.047392353 0.09343088 -0.99449724
-0.170407 0.915574 -0.314537 0.117409766 0.47300217 -0.8732032
-0.186655 0.907214 -0.322451 0.14247966 0.52022237 -0.8420619
-0.141278 0.921251 -0.283964 0.68133956 0.45705798 -0.57172936
-0.154011 0.919177 -0.300925 0.684331 0.4554492 -0.5694358
-0.106278 0.87162 -0.248059 0.84490836 0.3495388 0.40491053
-0.112672 0.868658 -0.232446 0.8407452 0.352289 0.41114452
-0.126235 0.896792 -0.232757 0.5216361 0.26045424 0.81244034
-0.125921 0.862724 -0.222037 0.5216361 0.26045424 0.81244034
-0.138938 0.890583 -0.222912 0.5074715 0.26288718 0.82058704
-0.106638 0.871852 -0.266963 0.8432631 0.41778937 -0.3381707
-0.120264 0.900007 -0.266157 0.8432631 0.41778937 -0.3381707
-0.136706 0.926532 -0.249134 0.71484506 0.6984926 -0.033236686
-0.136018 0.925025 -0.266007 0.71484506 0.6984926 -0.033236686
-0.152825 0.914652 -0.226568 0.44378316 0.37936836 0.81187195
-0.141818 0.921807 -0.235425 0.4329907 0.3579636 0.8272733
-0.169297 0.842653 -0.222278 -0.37691724 -0.08204975 0.9226057
-0.191458 0.831381 -0.232334 -0.37691724 -0.08204975 0.9226057
-0.201725 0.863227 -0.234578 -0.69762474 -0.17597269 0.69451666
-0.146124 0.853579 -0.218747 0.11604335 0.09918112 0.9882799
-0.158724 0.882351 -0.220155 0.11604335 0.09918112 0.9882799
-0.191735 0.902282 -0.228209 -0.2683995 0.23750459 0.9335702
-0.171199 0.908866 -0.224253 -0.2553904 0.23273972 0.93840706
-0.209229 0.892731 -0.238166 -0.7432906 -0.10877623 0.6600657
-0.228365 -0.446181 0.420977 -0.77599365 -0.6101255 0.15993993
-0.218865 -0.458568 0.419816 -0.77599365 -0.6101255 0.15993993
-0.21326 -0.450303 0.478539 -0.77599365 -0.6101255 0.15993993
-0.20511 -0.461837 0.475502 -0.78605926 -0.5973259 0.15909919
-0.183641 -0.455489 0.534379 -0.4924288 -0.85107785 0.182155
-0.194975 -0.474631 0.472428 -0.56196165 -0.7802726 0.2745426
-0.176881 -0.48852 0.469991 -0.56196165 -0.7802726 0.2745426
-0.17086 -0.474631 0.521789 -0.56196165 -0.7802726 0.2745426
-0.156751 -0.485651 0.517662 -0.5402151 -0.7949924 0.2759617
-0.206663 -0.472505 0.418626 -0.73845863 -0.6588018 0.14373247
-0.140849 -0.473458 0.563316 -0.40009663 -0.8121694 0.42462176
-0.109552 -0.472057 0.595485 -0.40009663 -0.8121694 0.42462176
-0.142559 -0.466669 0.57469 -0.40009663 -0.8121694 0.42462176
-0.106299 -0.467348 0.612794 -0.33789042 -0.89016414 0.30567592
-0.132033 -0.481167 0.556781 -0.43964592 -0.817727 0.37152925
-0.143787 -0.462243 0.587914 -0.25011483 -0.96607757 0.06431697
-0.102981 -0.465723 0.632974 -0.20686665 -0.9719055 0.112275794
-0.0755892 -0.465387 0.639018 -0.0056887027 -0.99668217 0.08119332
-0.0705061 -0.461083 0.663389 -0.027523132 -0.9833894 0.17940986
-0.0439995 -0.453929 0.682063 0.24357876 -0.92543566 0.29023814
-0.0549351 -0.471091 0.629642 -0.16722523 -0.91532636 0.3663516
-0.0815781 -0.471375 0.616771 -0.16722523 -0.91532636 0.3663516
-0.0640756 -0.481225 0.60015 -0.16722523 -0.91532636 0.3663516
-0.0917758 -0.479034 0.591505 -0.18245403 -0.91806793 0.3519399
-0.0238268 -0.46053 0.664171 -0.006673687 -0.9303798 0.36653626
-0.0276324 -0.470883 0.636565 -0.02242926 -0.9350645 0.35376722
-0.0329053 -0.483094 0.604968 -0.110325 -0.92894536 0.35339618
-0.0210984 -0.44987 0.691901 0.0280279 -0.94536746 0.32479954
-0.0317646 -0.445352 0.134276 -0.042651746 -0.98933065 -0.13930386
-0.0323291 -0.440606 0.100743 -0.042651746 -0.98933065 -0.13930386
-0.065741 -0.440111 0.119726 -0.1376333 -0.96640944 -0.21704842
-0.0674919 -0.459184 0.218582 -0.117571265 -0.9600642 -0.2538773
-0.0636123 -0.450028 0.182161 -0.117571265 -0.9600642 -0.2538773
-0.034368 -0.461296 0.211229 -0.117571265 -0.9600642 -0.2538773
-0.0320458 -0.45108 0.17059 -0.12312895 -0.9607598 -0.24855559
-0.124102 -0.450719 0.228684 -0.1570575 -0.9643767 -0.21286295
-0.129769 -0.445891 0.210992 -0.1570575 -0.9643767 -0.21286295
-0.0942201 -0.449501 0.201118 -0.1570575 -0.9643767 -0.21286295
-0.0965198 -0.444834 0.175662 -0.14508848 -0.97544044 -0.16572647
-0.0981278 -0.457279 0.230677 -0.16610397 -0.9480205 -0.27141583
-0.101319 -0.442167 0.150389 -0.069800176 -0.98664904 -0.1471449
-0.138015 -0.443895 0.192281 -0.055276413 -0.99511534 -0.0817926
-0.163536 -0.447685 0.255959 -0.23475236 -0.94818133 -0.21411097
-0.174785 -0.442414 0.24495 -0.23475236 -0.94818133 -0.21411097
-0.205661 -0.440923 0.30331 -0.2178872 -0.9717737 -0.09044871
-0.179537 -0.460826 0.31166 -0.42845055 -0.8317442 -0.35303223
-0.153491 -0.454897 0.266081 -0.42845055 -0.8317442 -0.35303223
-0.160168 -0.471758 0.313909 -0.42845055 -0.8317442 -0.35303223
-0.138385 -0.462583 0.271465 -0.32061303 -0.87840164 -0.35442597
-0.213095 -0.454425 0.36305 -0.7518184 -0.6476653 -0.12368816
-0.199389 -0.4673 0.363772 -0.6716655 -0.7238641 -0.15775351
-0.178344 -0.481123 0.364052 -0.521292 -0.7996821 -0.2979317
-0.224677 -0.442616 0.362277 -0.43615544 -0.8844191 -0.16604602
-0.0774159 -0.49456 0.56248 -0.14479606 -0.91549957 0.3753595
-0.0400356 -0.499329 0.565268 -0.14479606 -0.91549957 0.3753595
-0.0472884 -0.515301 0.519274 -0.06709008 -0.93605816 0.34538966
-0.12906 -0.497175 0.517019 -0.3567976 -0.87552625 0.32580537
-0.109485 -0.488354 0.558077 -0.303496 -0.89153546 0.33623594
-0.102374 -0.516827 0.468605 -0.30183664 -0.95161587 0.057635304
-0.144853 -0.503338 0.468859 -0.30183664 -0.95161587 0.057635304
-0.106971 -0.518553 0.416032 -0.30183664 -0.95161587 0.057635304
-0.151776 -0.503865 0.416665 -0.31046027 -0.94923 0.050764173
-0.0529288 -0.526727 0.468796 -0.07522447 -0.9707193 0.22813444
-0.0552219 -0.529321 0.415644 -0.20310551 -0.9778863 0.049864706
-0.101727 -0.509066 0.362546 -0.20136593 -0.9608769 -0.19017752
-0.0524328 -0.518796 0.361628 -0.19338037 -0.9610906 -0.19725314
-0.046641 -0.500432 0.308431 -0.068244055 -0.9407433 -0.33218187
-0.12954 -0.482953 0.312862 -0.33448958 -0.88477033 -0.32449684
-0.144743 -0.495777 0.363499 -0.33448958 -0.88477033 -0.32449684
-0.0778956 -0.474931 0.261875 -0.2052701 -0.90287477 -0.37773192
-0.111951 -0.469275 0.268257 -0.21915282 -0.90324724 -0.36893958
-0.0399262 -0.479506 0.257737 -0.06785562 -0.91901124 -0.38834766
-0.139042 -0.0451633 0.963659 -0.4753217 0.08426626 0.87576735
-0.150007 -0.038161 0.957034 -0.4753217 0.08426626 0.87576735
-0.152295 -0.0598695 0.957881 -0.4753217 0.08426626 0.87576735
-0.164631 -0.0504489 0.951176 -0.42801535 0.08023373 0.90020293
-0.16267 -0.0297463 0.947597 -0.43599376 0.2967288 0.8496244
-0.148938 -0.0188178 0.950827 -0.43599376 0.2967288 0.8496244
-0.137897 -0.0298265 0.961061 -0.47685653 0.29234937 0.82893896
-0.109851 -0.0516794 0.976283 -0.39743423 -0.0010276464 0.91763014
-0.109744 -0.0412763 0.976341 -0.39743423 -0.0010276464 0.91763014
-0.125245 -0.0487781 0.969619 -0.39743423 -0.0010276464 0.91763014
-0.122462 -0.037914 0.969963 -0.42948088 0.08153691 0.8993875
-0.133714 -0.0642499 0.965416 -0.37995127 -0.020932812 0.9247696
-0.130968 -0.0135459 0.956851 -0.3926944 0.38330656 0.8359828
-0.124172 -0.0273895 0.966259 -0.3858607 0.3814394 0.8400093
-0.109331 -0.0304408 0.974293 -0.40106678 0.18486668 0.89720106
-0.213918 -0.078022 0.922841 -0.5675226 0.11376532 0.8154603
-0.185903 -0.064746 0.940486 -0.5675226 0.11376532 0.8154603
-0.214922 -0.0472768 0.917853 -0.5675226 0.11376532 0.8154603
-0.18873 -0.0434748 0.935764 -0.5716804 0.10467155 0.8137724
-0.172782 -0.0812671 0.947651 -0.46463162 0.021636005 0.8852397
-0.24743 -0.125194 0.898745 -0.7059645 0.03607789 0.7073278
-0.248772 -0.0872467 0.896118 -0.71178865 0.02342599 0.702003
-0.247517 -0.0516572 0.891815 -0.62345254 0.11547959 0.7732861
-0.209867 -0.161573 0.925244 -0.5583192 -0.008256686 0.829585
-0.2493 -0.167014 0.898651 -0.5583192 -0.008256686 0.829585
-0.129144 -0.123186 0.961976 -0.347063 -0.088260144 0.9336795
-0.163882 -0.120989 0.949271 -0.347063 -0.088260144 0.9336795
-0.133001 -0.161124 0.956956 -0.347063 -0.088260144 0.9336795
-0.170754 -0.160591 0.943861 -0.32776535 -0.07181383 0.94202584
-0.149065 -0.0885975 0.957545 -0.39899385 -0.0555649 0.91526854
-0.119758 -0.0911109 0.968067 -0.34277248 -0.0774819 0.9362177
-0.165953 -0.00373407 0.934179 -0.47293282 0.35605076 0.8059544
-0.181563 -0.0218941 0.9332 -0.46722233 0.35803437 0.80840254
-0.206641 -0.0168625 0.913183 -0.56964976 0.2740751 0.7748433
-0.155037 0.0342159 0.918365 -0.38571754 0.47279927 0.79226434
-0.143447 0.00727528 0.940085 -0.38571754 0.47279927 0.79226434
-0.124777 0.0448234 0.926767 -0.38571754 0.47279927 0.79226434
-0.116698 0.0146029 0.948102 -0.36890838 0.46821994 0.8029176
-0.188508 0.055577 0.881861 -0.48665977 0.58122724 0.65217876
-0.159167 0.0664178 0.894094 -0.48665977 0.58122724 0.65217876
-0.128713 0.0776757 0.9026 -0.40124285 0.51109385 0.7601232
-0.225597 0.0165132 0.878354 -0.64245355 0.48811445 0.5907603
-0.216542 0.0481267 0.863247 -0.6626023 0.4688828 0.5840438
-0.237857 -0.0169093 0.886885 -0.6185622 0.28108135 0.73373985
-0.0314129 0.062618 0.944549 -0.060576983 0.54691637 0.8349928
-0.0296124 0.0304081 0.965777 -0.060576983 0.54691637 0.8349928
-0.0272441 0.00174637 0.985368 -0.18150905 0.5446594 0.81878
-0.0541294 -0.000582154 0.980957 -0.18150905 0.5446594 0.81878
-0.0591053 0.0273947 0.96148 -0.17512485 0.54135823 0.8223518
-0.0652762 0.0925539 0.91594 -0.1578608 0.6601128 0.73439157
-0.032753 0.0962353 0.919852 -0.16293263 0.66229224 0.73131526
-0.0973395 0.0863776 0.910036 -0.33224243 0.532751 0.7783259
-0.0939443 0.0532189 0.93429 -0.33480546 0.53373027 0.77655476
-0.0802969 -0.0053962 0.974961 -0.28033516 0.51436496 0.81045717
-0.0883591 0.0217178 0.955411 -0.26847902 0.5095827 0.8174622
-0.0313918 -0.121887 0.983992 -0.04454583 -0.16756128 0.98485476
-0.0317497 -0.157085 0.978196 -0.038255565 -0.16198142 0.98605204
-0.0640997 -0.158632 0.974036 -0.09830813 -0.18749537 0.9773336
-0.05977 -0.0942344 0.98419 -0.14431073 -0.22244443 0.9642059
-0.0298425 -0.0936976 0.988793 -0.14431073 -0.22244443 0.9642059
-0.0544734 -0.0758718 0.989219 -0.14431073 -0.22244443 0.9642059
-0.0273784 -0.0760818 0.993721 -0.16076156 -0.24498191 0.9561064
-0.0956523 -0.123707 0.972085 -0.28898978 -0.09630746 0.95247567
-0.0898671 -0.0931811 0.977114 -0.29460105 -0.100725666 0.9502971
-0.0810019 -0.0733797 0.982855 -0.245842 -0.18943697 0.9506184
-0.0976501 -0.160225 0.966985 -0.19332801 -0.18936503 0.9626864
-0.0717681 -0.0690106 0.994894 -0.5494337 -0.6430407 0.53349906
-0.0789269 -0.06284 0.994959 -0.5494337 -0.6430407 0.53349906
-0.0864529 -0.0640166 0.98579 -0.5494337 -0.6430407 0.53349906
-0.0940951 -0.0565412 0.98502 -0.6041871 -0.5591922 0.5676814
-0.0955999 -0.0476973 0.985969 -0.5623452 0.0011744048 0.8269017
-0.0666347 -0.0644079 1.00864 -0.6982062 -0.48429498 0.5272252
-0.0652946 -0.0700523 1.00523 -0.6982062 -0.48429498 0.5272252
-0.052795 -0.0725924 1.01945 -0.6982062 -0.48429498 0.5272252
-0.0525276 -0.0775374 1.01483 -0.68716836 -0.51546216 0.51195544
-0.0598989 -0.0753391 1.00401 -0.62521994 -0.71190375 0.31983283
-0.0788425 -0.0488271 1.00064 -0.6080844 0.11327668 0.7857492
-0.0652608 -0.0582549 1.01251 -0.6080844 0.11327668 0.7857492
-0.0716307 -0.0432 1.00541 -0.6080844 0.11327668 0.7857492
-0.0598411 -0.0536198 1.01768 -0.70547444 0.035334013 0.70785403
-0.0525009 -0.0662129 1.0231 -0.71542084 -0.32184294 0.6201533
-0.0938769 -0.0385712 0.986828 -0.5634473 0.17411946 0.8075949
-0.0861068 -0.0306433 0.989153 -0.53307706 0.28929794 0.7950695
-0.0694706 -0.025394 0.994502 -0.4051665 0.5128141 0.7568763
-0.0582598 -0.0403976 1.0119 -0.4603805 0.5036649 0.73100716
-0.0476184 -0.0223971 1.0006 -0.29101878 0.5907561 0.7525393
-0.0297219 -0.0653048 1.04059 -0.43014684 0.39337116 0.81254715
-0.0344846 -0.0534302 1.03232 -0.43014684 0.39337116 0.81254715
-0.0426567 -0.0627588 1.03251 -0.43014684 0.39337116 0.81254715
-0.0490439 -0.0525287 1.02501 -0.399188 0.36681563 0.8402947
-0.0209047 -0.039677 1.02317 -0.057670124 0.6797368 0.7311854
-0.0177789 -0.0547726 1.03745 -0.057670124 0.6797368 0.7311854
-0.0152462 -0.0676801 1.04602 -0.22856773 0.50697213 0.8311053
-0.0242006 -0.0212264 1.00515 -0.17852716 0.6283496 0.757169
-0.0209476 -0.0779737 1.00716 0.045780215 -0.78374815 -0.61938924
-0.0242757 -0.0726037 0.999895 0.050697558 -0.79188764 -0.60855865
-0.0477856 -0.0718253 0.995571 -0.12592778 -0.8359252 0.53420156
-0.0345351 -0.0845283 1.01121 0.033874422 -0.80405235 -0.5935927
-0.0178069 -0.0869021 1.01538 0.033874422 -0.80405235 -0.5935927
-0.0297587 -0.0908237 1.02001 0.033874422 -0.80405235 -0.5935927
-0.0152667 -0.0940994 1.02438 0.012869138 -0.7791415 -0.626716
-0.0491057 -0.0804193 1.00671 -0.3247763 -0.87752277 -0.3528088
-0.0583871 -0.073576 0.998233 -0.3247763 -0.87752277 -0.3528088
-0.0427012 -0.0854758 1.01505 -0.14757544 -0.84056246 -0.52122575
-0.0697639 -0.0690371 0.990088 -0.25882682 -0.6677777 0.69791234
-0.0394909 -0.0796254 1.02906 -0.66522056 -0.3808197 0.64222896
-0.0399318 -0.0720589 1.03309 -0.66522056 -0.3808197 0.64222896
-0.0271444 -0.0763309 1.04139 -0.5596326 -0.07092082 0.8257007
-0.0271637 -0.0905263 1.02914 -0.4778067 -0.86303616 0.16391888
-0.0399551 -0.0846544 1.02277 -0.4778067 -0.86303616 0.16391888
-0.0132272 -0.0889316 1.04223 -0.17285351 -0.82944053 0.531178
-0.01374 -0.0942759 1.03402 -0.16261746 -0.8222512 0.54539764
-0.0137291 -0.0795664 1.04692 -0.376459 0.022071192 0.92617035
0.335878 -0.384495 0.425693 0.6657088 -0.74476695 -0.046412054
0.284862 -0.410239 0.304857 0.47550476 -0.8772834 -0.065338604
0.240757 -0.435635 0.421981 0.3749771 -0.92476493 -0.06482253
0.149341 -0.451522 0.166423 -0.3018456 -0.8831106 0.3591724
0.358602 -0.37797 0.17897 0.74763954 -0.62555456 0.2229724
0.257025 -0.429064 0.536591 0.41532862 -0.90948474 0.018430943
0.316102 -0.419396 0.649153 0.67906016 -0.68198645 -0.27160951
0.101546 -0.475382 0.663157 -0.3427933 -0.807659 -0.47977057
0.348799 -0.334989 -0.0832331 0.49057388 0.09136693 -0.8665964
0.229478 -0.212011 -0.133147 0.3530922 0.021518506 -0.93534106
0.114009 -0.358339 -0.0759521 -0.33004105 -0.4680204 -0.81977415
0.12606 -0.162036 -0.185668 0.39757913 -0.2085376 -0.89355636
0.310974 -0.0974099 -0.0697762 0.6867231 0.20172788 -0.6983676
0.305362 0.0307983 -0.00655663 0.74436957 0.43104327 -0.5100155
0.227173 -0.0372356 -0.128413 0.58688414 0.30266988 -0.7509713
0.158786 0.0751889 -0.141343 0.6822025 0.279969 -0.67543834
0.313132 -0.399051 0.881192 0.5433197 0.1240813 0.8303057
0.215547 -0.286415 0.919674 0.37229604 -0.006441676 0.9280917
0.287544 -0.214549 0.864938 0.69745755 0.09891899 0.7097661
0.131961 -0.201382 0.951731 0.20601715 -0.19285053 0.95935684
0.0876766 -0.391182 0.901606 -0.2886132 -0.23424079 0.92835
0.375418 -0.216313 0.0359591 0.9787203 0.09780835 -0.18038908
0.385825 -0.174501 0.180766 0.9977645 -0.011391906 -0.065849945
0.374384 -0.294532 0.308248 0.96375173 -0.26315296 0.043966834
0.36907 -0.228332 0.435279 0.99232644 -0.060474023 0.10784793
0.353623 -0.0486456 0.443969 0.9716996 0.2131951 0.10172406
0.381949 -0.125584 0.315412 0.9858587 0.11955959 0.11742363
0.369388 -0.0242775 0.205838 0.9677644 0.24882077 0.038991246
0.361458 -0.0619596 0.0609153 0.92806864 0.2254978 -0.29637685
0.336544 -0.303107 0.775339 0.96598977 0.16241546 0.20120883
0.345953 -0.229705 0.664126 0.99161935 0.019000819 0.1277889
0.279611 -0.0552387 0.858547 0.8446497 0.11740071 0.52228725
0.329 -0.140489 0.774308 0.9265818 0.01736791 0.3756921
0.34304 -0.0541165 0.672286 0.9768253 0.14588411 0.1566213
0.360647 -0.141814 0.556564 0.99400663 0.08917019 0.06324177
0.349272 -0.319879 0.544579 0.9584997 -0.26877207 0.09507773
0.266758 0.181628 0.122726 0.85249317 0.5049609 -0.13516638
0.227226 0.252859 0.204008 0.81489843 0.57926464 -0.019824317
0.177264 0.282839 0.0875537 0.68531173 0.71993953 -0.10970344
0.161859 0.285356 0.303098 0.5516224 0.8000295 0.23593538
0.273782 0.160332 0.273861 0.8519186 0.50241446 0.14769667
0.266719 0.10578 0.46681 0.77995944 0.606978 0.15244977
0.215375 0.198113 0.382954 0.7503982 0.5938757 0.29019678
0.146074 0.206063 0.488052 0.49531987 0.81046605 0.31273472
0.229555 0.0663178 0.828702 0.6587337 0.6041312 0.4484365
0.191558 0.132026 0.78245 0.5998159 0.69544 0.39570713
0.25445 0.101336 0.680112 0.72638553 0.6700172 0.15310462
0.138236 0.191142 0.700393 0.466808 0.8579515 0.21449819
0.13061 0.109881 0.873657 0.4255587 0.69755787 0.57646585
0.204392 0.157257 0.584394 0.66443485 0.74563134 0.050598104
0.324726 0.0469262 0.344192 0.8907776 0.4366807 0.12579808
0.289863 0.0225221 0.77107 0.86581016 0.44149095 0.23549621
0.239299 0.151564 0.0118342 0.73178315 0.4705516 -0.49302602
0.313467 0.030566 0.566851 0.8358431 0.5477591 0.036416687
0.317033 0.0909783 0.142973 0.9010747 0.43243515 -0.032623917
0.172619 0.221245 -0.0722104 0.9947724 -0.010726874 -0.101552434
0.184529 0.181235 -0.238574 0.75692904 -0.6039421 0.24962422
0.15689 0.317253 -0.0179554 0.8680817 -0.067549 0.49180415
0.248629 0.311098 -0.153862 0.75880647 -0.51927006 0.3931556
0.326584 0.303676 -0.375494 0.9317242 -0.2561043 0.25748926
0.229877 0.446038 -0.0428095 0.8567317 -0.15094031 0.49318126
0.278147 0.181024 -0.423508 0.6716309 -0.67994356 0.2942594
0.190442 0.122856 -0.437696 0.39708504 -0.91049474 0.11542448
0.271501 0.201979 -0.579853 0.6588602 -0.66129744 -0.35859293
0.314593 0.32071 -0.563292 0.9664669 0.14739089 -0.21028017
0.227961 0.337016 -0.641468 0.43236896 0.29411474 -0.85238117
0.257915 0.488969 -0.517721 0.83908075 0.31515402 -0.44342002
0.323288 -0.645898 -0.0650069 0.622145 -0.5889493 -0.5158239
0.229681 -0.733842 0.0266899 0.24035463 -0.94833213 -0.20711316
0.310744 -0.658159 0.12474 0.6137878 -0.6409043 0.460984
0.15321 -0.671553 0.116597 -0.5778878 -0.6440586 0.50123256
0.153343 -0.652512 -0.0628489 -0.60052973 -0.5655699 -0.5652386
0.277559 -0.660659 0.872426 0.611975 -0.62329704 0.48681358
0.198244 -0.736784 0.793448 0.24119973 -0.9463726 0.2149456
0.125665 -0.664371 0.877017 -0.58561516 -0.56588537 0.5803694
0.129752 -0.680413 0.714233 -0.60672146 -0.6559677 -0.44899386
0.270197 -0.670204 0.705429 0.56401646 -0.6523445 -0.50629246
0.335563 -0.561971 0.78431 0.9809146 -0.09279621 -0.17086677
0.0716769 -0.583028 0.796447 -0.9880596 -0.08962741 0.12532039
0.203007 -0.591569 0.647127 0.1452788 -0.1649631 -0.97554153
0.206666 -0.553636 0.930804 -0.097468965 0.033499658 0.9946747
0.383244 -0.532332 0.0297109 0.987933 -0.044941157 0.1482184
0.24402 -0.524662 -0.124285 -0.22276866 0.032210786 -0.97433907
0.241073 -0.571789 0.188527 -0.22485536 -0.087659754 0.97044104
0.0999951 -0.56397 0.0317575 -0.99532163 0.0019558794 -0.09659726
0.293195 0.482084 -0.276654 0.9664694 0.25532377 0.02732233
0.264169 0.646946 -0.369897 0.9796203 0.1253644 -0.15693335
0.263204 0.560375 -0.137191 0.9554888 -0.12205965 0.26859355
0.180359 0.68646 -0.148279 0.054991204 0.5131034 0.85656345
0.326345 0.612341 -0.141546 0.20257506 -0.09062781 0.9750641
0.379346 0.604049 -0.213075 0.3934504 -0.91860294 -0.036951527
0.424574 0.680439 -0.150855 0.16290644 -0.11352697 0.98008835
0.3154 0.606871 -0.278418 0.3605509 -0.8389729 -0.40758732
0.371765 0.683869 -0.321196 0.41189536 -0.3326283 -0.84835166
0.454185 0.684351 -0.230461 0.759656 -0.36890855 -0.53556436
0.432195 0.751246 -0.233457 0.5770346 0.7798518 -0.2426155
0.0 0.326124 0.139538 0.010906004 0.99869454 0.04990193
0.0910385 0.318251 0.216664 0.08445691 0.99546957 0.04367256
0.0 0.301194 0.312719 -0.010077532 0.9680302 0.25063097
0.0 0.233342 0.49566 0.03491374 0.9937276 0.106238395
0.0724773 0.219588 0.599773 0.14307825 0.9891277 0.033985093
0.0 0.220553 0.711025 0.05416825 0.99374855 0.097620115
0.0695062 0.18012 0.806775 0.16375415 0.9090818 0.38308594
0.0 0.130478 0.891171 0.05581461 0.7761861 0.6280286
0.0 -0.434774 0.0615192 0.13589276 -0.9215441 -0.3637167
0.056363 -0.399912 0.0126968 0.2537233 -0.84935534 -0.46283916
0.0 -0.354126 -0.0677048 0.13902158 -0.76800394 -0.62517434
0.0 -0.340037 0.891691 -0.02723738 -0.7925029 0.6092596
0.0321101 -0.404726 0.804765 -0.29734582 -0.8260934 0.4787016
0.0 -0.435249 0.726548 -0.014741863 -0.91518116 0.40277305
0.0798727 0.262384 0.399618 0.04183701 0.9047995 0.4237776
0.0 0.352207 0.0388631 0.05081617 0.58816755 0.807141
0.0858416 0.32349 0.0605597 0.19119474 0.9306097 0.31210592
0.0 0.499175 0.0586613 0.10217522 0.05072367 0.99347234
0.105997 0.402715 0.0360884 0.23664397 -0.15606506 0.9589804
0.0 0.505678 -0.563016 0.013445694 0.39857757 -0.91703606
0.121817 0.636846 -0.502061 0.08205727 0.36901984 -0.92579216
-4.33681e-19 0.765067 -0.449072 0.046952643 0.47557825 -0.87841946
0.187711 0.730295 -0.437134 0.26871422 0.5288994 -0.8050205
0.0 0.340641 -0.665066 0.0015344325 0.4156026 -0.90954506
0.138945 0.411476 -0.620153 0.05308298 0.575274 -0.8162365
0.0 -0.194995 0.971379 0.027573818 -0.27970633 0.95968956
0.0501277 -0.274014 0.941915 0.058618914 -0.36888853 0.9276234
0.050202 -0.275405 -0.142323 0.1389022 -0.7010658 -0.6994376
0.0 -0.192084 -0.196407 -0.0004326616 -0.45141074 -0.8923162
0.0655056 -0.0670069 -0.214493 0.24494025 -0.10102504 -0.9642605
0.0 0.0414775 -0.241591 0.15720606 -0.12972568 -0.97900844
0.0838463 0.11062 -0.238883 0.4406799 -0.45968118 -0.7710346
0.0 0.117615 -0.305384 0.07761931 -0.9856723 -0.1497511
0.102596 0.115199 -0.359834 0.11713445 -0.96188635 0.24709132
0.0 0.100384 -0.450564 0.009965644 -0.99950653 0.029790044
0.137484 0.129002 -0.534091 0.055772338 -0.9379757 -0.34218568
0.0 0.182587 -0.616155 0.008454325 -0.7500818 -0.66129094
0.150371 0.262453 -0.657355 0.06311176 -0.413496 -0.90831596
0.128934 0.593549 -0.0276065 0.42203408 0.5032214 0.7540925
-4.33681e-19 0.723906 -0.0597107 0.2524999 0.5620502 0.7876188
0.2462 0.632058 -0.451998 0.8622597 0.25608706 -0.43695262
0.221786 0.905461 -0.256021 0.8810433 0.22318925 0.41707224
0.198381 0.950853 -0.26973 0.6521052 0.72960013 0.20601577
0.205905 0.915741 -0.313374 0.4873772 0.47886992 -0.7301692
0.15338 0.935554 -0.282029 -0.49744752 0.75139636 -0.4335313
0.164015 0.929339 -0.232094 -0.059540574 0.5730346 0.8173655
0.219399 0.754552 -0.28348 0.60670626 0.78114444 -0.14737956
0.190344 0.780419 -0.305321 0.8293515 0.5398614 -0.14396478
0.162464 0.791078 -0.351846 0.57691216 0.8052309 -0.13702351
0.172231 0.819312 -0.334104 0.57139975 -0.18238613 -0.8001485
0.199751 0.790382 -0.244881 0.9856451 0.093079716 0.14085391
0.14521 0.793415 -0.208712 0.30169916 0.45952663 0.835352
0.115236 0.837896 -0.222054 -0.1428855 0.1298797 0.98118037
0.086327 0.812209 -0.211465 0.1928633 0.8403462 0.5065787
0.184684 0.762009 -0.196152 0.39810732 0.76643836 0.50406635
0.12321 0.811864 -0.327105 0.07192672 0.8687037 -0.4900821
0.0787362 0.822102 -0.294366 0.24480553 0.96900976 -0.033020828
0.102999 0.844736 -0.288229 -0.73173535 0.35561612 -0.5814641
0.0836698 0.824545 -0.249204 -0.33286408 0.9429748 0.0002614308
0.21289 0.762245 -0.22883 0.23418441 0.9692707 0.07531285
0.279703 0.762439 -0.233186 -0.105635494 0.9944011 0.0027599975
0.32003 0.739642 -0.304714 -0.070261165 0.86011153 -0.505244
0.328516 0.741977 -0.181175 -0.035731483 0.758518 0.6506718
0.0788354 0.774284 -0.158189 0.2590267 0.7369158 0.6243879
0.0 0.816061 -0.189369 0.15325032 0.90817505 0.38952836
-4.33681e-19 0.834757 -0.307668 0.07592468 0.9922569 -0.098294646
0.0897195 0.811796 -0.373587 0.150561 0.96400166 -0.21916248
0.0404745 0.828353 -0.247459 0.123723045 0.96797985 0.21842082
0.211302 0.744371 -0.365196 0.75802153 0.61370033 -0.22085112
0.218551 0.860755 -0.297102 0.83485246 -0.25323814 -0.4887656
0.157513 0.887986 -0.320358 -0.5724917 0.3218552 -0.75409716
0.120161 0.900194 -0.247801 -0.821292 0.39531988 0.4113414
0.181137 0.872948 -0.224154 0.40973666 -0.10401556 0.9062542
0.177713 -0.464461 0.527871 0.6694917 -0.6719824 0.31657612
0.111282 -0.477316 0.58188 0.38284564 -0.81171924 0.44106817
0.186164 -0.487701 0.417533 0.58942837 -0.80205363 0.09635451
0.0486808 -0.462533 0.655449 0.0020030774 -0.98468757 0.17431638
0.0 -0.483948 0.606421 0.040291663 -0.9297311 0.36602807
0.0638357 -0.444618 0.15006 0.09180779 -0.9857864 -0.14070001
0.120311 -0.456517 0.243094 0.20928416 -0.9250034 -0.3171259
0.0 -0.462404 0.208739 0.050029878 -0.9681418 -0.24535395
0.192938 -0.45045 0.307624 0.5224429 -0.81345606 -0.25562194
0.0913755 -0.507594 0.518132 0.1709486 -0.9294426 0.32697564
0.0 -0.533724 0.415511 0.0792301 -0.99535 0.05478023
0.0906862 -0.492986 0.310407 0.18892525 -0.92640036 -0.32571396
0.17185 -0.0410977 0.94527 0.45894185 0.19338307 0.86716515
0.133131 -0.0374762 0.965091 0.44835296 0.18172602 0.8751887
0.106249 -0.0142167 0.968533 0.3813067 0.3727736 0.845958
0.107395 -0.0653463 0.975253 0.35168475 -0.061248302 0.93411267
0.202946 -0.113321 0.930645 0.51452565 0.029529858 0.85696644
0.189431 0.0176502 0.907717 0.5180312 0.3797093 0.7664624
0.0 0.00228925 0.987177 0.06596789 0.56111246 0.82510674
0.0627521 0.0592134 0.940397 0.167732 0.5310934 0.8305454
0.0631528 -0.123094 0.979468 0.13325386 -0.15971074 0.97812873
0.0 -0.0756163 0.995507 0.057858758 -0.2769698 0.95913506
0.0809297 -0.0558501 0.997263 0.66313565 -0.19050793 0.7238493
0.0517509 -0.0608359 1.02473 0.70797896 -0.11259359 0.6972004
0.0517951 -0.0798093 1.0112 0.6522356 -0.6947382 0.3031953
0.0406958 -0.0395224 1.01839 0.29719782 0.62748116 0.719681
0.0 -0.0688251 1.04807 0.071734734 0.5428686 0.83674836
0.0407812 -0.0765567 1.00299 -0.07300336 -0.78574044 -0.61423326
0.0 -0.0952192 1.02642 -0.029483076 -0.76660675 -0.64143974
0.0264068 -0.0851806 1.03686 0.5889833 -0.40659174 0.69841385
-0.335878 -0.384495 0.425693 -0.6657088 -0.74476695 -0.046412054
-0.284862 -0.410239 0.304857 -0.47550476 -0.8772834 -0.065338604
-0.358602 -0.37797 0.17897 -0.74763954 -0.62555456 0.2229724
-0.149341 -0.451522 0.166423 0.3018456 -0.8831106 0.3591724
-0.240757 -0.435635 0.421981 -0.3749771 -0.92476493 -0.06482253
-0.257025 -0.429064 0.536591 -0.41532862 -0.90948474 0.018430943
-0.101546 -0.475382 0.663157 0.3427933 -0.807659 -0.47977057
-0.316102 -0.419396 0.649153 -0.67906016 -0.68198645 -0.27160951
-0.348799 -0.334989 -0.0832331 -0.49057388 0.09136693 -0.8665964
-0.229478 -0.212011 -0.133147 -0.239347 -0.14027606 -0.9607474
-0.310974 -0.0974099 -0.0697762 -0.6867231 0.20172788 -0.6983676
-0.12606 -0.162036 -0.185668 -0.32917345 -0.3331076 -0.88356334
-0.114009 -0.358339 -0.0759521 0.33004105 -0.4680204 -0.81977415
-0.305362 0.0307983 -0.00655663 -0.74436957 0.43104327 -0.5100155
-0.227173 -0.0372356 -0.128413 -0.58688414 0.30266988 -0.7509713
-0.158786 0.0751889 -0.141343 -0.5412838 0.20521916 -0.81541216
-0.313132 -0.399051 0.881192 -0.5433197 0.1240813 0.8303057
-0.215547 -0.286415 0.919674 -0.37229604 -0.006441676 0.9280917
-0.0876766 -0.391182 0.901606 0.2886132 -0.23424079 0.92835
-0.131961 -0.201382 0.951731 -0.2754041 -0.19904052 0.94049746
-0.287544 -0.214549 0.864938 -0.66240126 0.15287565 0.733385
-0.375418 -0.216313 0.0359591 -0.9628779 0.15610811 -0.2202187
-0.385825 -0.174501 0.180766 -0.9953274 0.054326225 -0.07982509
-0.374384 -0.294532 0.308248 -0.96375173 -0.26315296 0.043966834
-0.36907 -0.228332 0.435279 -0.9921725 -0.061704908 0.10856448
-0.353623 -0.0486456 0.443969 -0.9716996 0.2131951 0.10172406
-0.381949 -0.125584 0.315412 -0.9858587 0.11955959 0.11742363
-0.369388 -0.0242775 0.205838 -0.9677644 0.24882077 0.038991246
-0.361458 -0.0619596 0.0609153 -0.92806864 0.2254978 -0.29637685
-0.336544 -0.303107 0.775339 -0.983809 0.09469775 0.15215851
-0.345953 -0.229705 0.664126 -0.99526924 -0.038367357 0.08925873
-0.279611 -0.0552387 0.858547 -0.8446497 0.11740071 0.52228725
-0.329 -0.140489 0.774308 -0.9265818 0.01736791 0.3756921
-0.34304 -0.0541165 0.672286 -0.9768253 0.14588411 0.1566213
-0.360647 -0.141814 0.556564 -0.99400663 0.08917019 0.06324177
-0.349272 -0.319879 0.544579 -0.9584997 -0.26877207 0.09507773
-0.266758 0.181628 0.122726 -0.85249317 0.5049609 -0.13516638
-0.227226 0.252859 0.204008 -0.81489843 0.57926464 -0.019824317
-0.273782 0.160332 0.273861 -0.8519186 0.50241446 0.14769667
-0.161859 0.285356 0.303098 -0.5516224 0.8000295 0.23593538
-0.177264 0.282839 0.0875537 -0.68531173 0.71993953 -0.10970344
-0.266719 0.10578 0.46681 -0.77995944 0.606978 0.15244977
-0.215375 0.198113 0.382954 -0.7503982 0.5938757 0.29019678
-0.146074 0.206063 0.488052 -0.49531987 0.81046605 0.31273472
-0.229555 0.0663178 0.828702 -0.6483956 0.60569936 0.46120656
-0.191558 0.132026 0.78245 -0.62277496 0.68892854 0.3708489
-0.13061 0.109881 0.873657 -0.4255587 0.69755787 0.57646585
-0.138236 0.191142 0.700393 -0.4831534 0.85225385 0.20056446
-0.25445 0.101336 0.680112 -0.72638553 0.6700172 0.15310462
-0.204392 0.157257 0.584394 -0.66443485 0.74563134 0.050598104
-0.324726 0.0469262 0.344192 -0.89274937 0.43374127 0.12193084
-0.289863 0.0225221 0.77107 -0.86581016 0.44149095 0.23549621
-0.239299 0.151564 0.0118342 -0.73178315 0.4705516 -0.49302602
-0.313467 0.030566 0.566851 -0.8358431 0.5477591 0.036416687
-0.317033 0.0909783 0.142973 -0.90581554 0.41653353 -0.07744715
-0.172619 0.221245 -0.0722104 -0.9947724 -0.010726874 -0.101552434
-0.15689 0.317253 -0.0179554 -0.8680817 -0.067549 0.49180415
-0.184529 0.181235 -0.238574 -0.75692904 -0.6039421 0.24962422
-0.248629 0.311098 -0.153862 -0.7385879 -0.5296423 0.4170933
-0.229877 0.446038 -0.0428095 -0.8567317 -0.15094031 0.49318126
-0.326584 0.303676 -0.375494 -0.9317242 -0.2561043 0.25748926
-0.278147 0.181024 -0.423508 -0.6716309 -0.67994356 0.2942594
-0.271501 0.201979 -0.579853 -0.6588602 -0.66129744 -0.35859293
-0.190442 0.122856 -0.437696 -0.39871567 -0.911199 0.1036442
-0.314593 0.32071 -0.563292 -0.9664669 0.14739089 -0.21028017
-0.257915 0.488969 -0.517721 -0.83908075 0.31515402 -0.44342002
-0.227961 0.337016 -0.641468 -0.43236896 0.29411474 -0.85238117
-0.323288 -0.645898 -0.0650069 -0.622145 -0.5889493 -0.5158239
-0.229681 -0.733842 0.0266899 -0.24035463 -0.94833213 -0.20711316
-0.153343 -0.652512 -0.0628489 0.5370044 -0.5657898 -0.6257061
-0.15321 -0.671553 0.116597 0.6293642 -0.63438636 0.4488369
-0.310744 -0.658159 0.12474 -0.55942833 -0.6469414 0.51817626
-0.277559 -0.660659 0.872426 -0.61370605 -0.59425676 0.5198305
-0.198244 -0.736784 0.793448 -0.24119973 -0.9463726 0.2149456
-0.270197 -0.670204 0.705429 -0.61809105 -0.64469814 -0.44980848
-0.129752 -0.680413 0.714233 0.5694653 -0.6611008 -0.4885233
-0.125665 -0.664371 0.877017 0.5853375 -0.60961837 0.53455174
-0.335563 -0.561971 0.78431 -0.9809146 -0.09279621 -0.17086677
-0.0716769 -0.583028 0.796447 0.9880596 -0.08962741 0.12532039
-0.203007 -0.591569 0.647127 -0.1452788 -0.1649631 -0.97554153
-0.206666 -0.553636 0.930804 0.097468965 0.033499658 0.9946747
-0.383244 -0.532332 0.0297109 -0.9773335 -0.084891126 0.19393992
-0.24402 -0.524662 -0.124285 0.22276866 0.032210786 -0.97433907
-0.241073 -0.571789 0.188527 0.2393554 -0.09888425 0.96588343
-0.0999951 -0.56397 0.0317575 0.99532163 0.0019558794 -0.09659726
-0.293195 0.482084 -0.276654 -0.9664694 0.25532377 0.02732233
-0.263204 0.560375 -0.137191 -0.9554888 -0.12205965 0.26859355
-0.264169 0.646946 -0.369897 -0.9796203 0.1253644 -0.15693335
-0.180359 0.68646 -0.148279 -0.054991204 0.5131034 0.85656345
-0.326345 0.612341 -0.141546 -0.20257506 -0.09062781 0.9750641
-0.424574 0.680439 -0.150855 -0.16290644 -0.11352697 0.98008835
-0.379346 0.604049 -0.213075 -0.51443464 -0.85750365 0.006660041
-0.3154 0.606871 -0.278418 -0.3605509 -0.8389729 -0.40758732
-0.371765 0.683869 -0.321196 -0.41189536 -0.3326283 -0.84835166
-0.454185 0.684351 -0.230461 -0.759656 -0.36890855 -0.53556436
-0.432195 0.751246 -0.233457 -0.5770346 0.7798518 -0.2426155
-0.0910385 0.318251 0.216664 -0.0510104 0.9953664 0.08150832
-0.0724773 0.219588 0.599773 -0.14307825 0.9891277 0.033985093
-0.0695062 0.18012 0.806775 -0.16375415 0.9090818 0.38308594
-0.056363 -0.399912 0.0126968 -0.22423337 -0.84284174 -0.4892209
-0.0321101 -0.404726 0.804765 0.29734582 -0.8260934 0.4787016
-0.0798727 0.262384 0.399618 -0.06391178 0.91094965 0.40753654
-0.0858416 0.32349 0.0605597 -0.19119474 0.9306097 0.31210592
-0.105997 0.402715 0.0360884 -0.23664397 -0.15606506 0.9589804
-0.121817 0.636846 -0.502061 -0.08317037 0.3682021 -0.92601836
-0.187711 0.730295 -0.437134 -0.29415554 0.51221657 -0.8069119
-0.138945 0.411476 -0.620153 -0.05308298 0.575274 -0.8162365
-0.0501277 -0.274014 0.941915 -0.058618914 -0.36888853 0.9276234
-0.050202 -0.275405 -0.142323 -0.1389022 -0.7010658 -0.6994376
-0.0655056 -0.0670069 -0.214493 -0.24494025 -0.10102504 -0.9642605
-0.0838463 0.11062 -0.238883 -0.4406799 -0.45968118 -0.7710346
-0.102596 0.115199 -0.359834 -0.09702346 -0.9725289 0.21159874
-0.137484 0.129002 -0.534091 -0.055772338 -0.9379757 -0.34218568
-0.150371 0.262453 -0.657355 -0.06311176 -0.413496 -0.90831596
-0.128934 0.593549 -0.0276065 -0.42203408 0.5032214 0.7540925
-0.2462 0.632058 -0.451998 -0.8622597 0.25608706 -0.43695262
-0.221786 0.905461 -0.256021 -0.8810433 0.22318925 0.41707224
-0.198381 0.950853 -0.26973 -0.6464112 0.7304829 0.22033465
-0.164015 0.929339 -0.232094 0.059540574 0.5730346 0.8173655
-0.15338 0.935554 -0.282029 0.5307323 0.7714505 -0.35098067
-0.205905 0.915741 -0.313374 -0.4873772 0.47886992 -0.7301692
-0.219399 0.754552 -0.28348 -0.5860292 0.8098125 -0.02781481
-0.190344 0.780419 -0.305321 -0.8293515 0.5398614 -0.14396478
-0.199751 0.790382 -0.244881 -0.9856451 0.093079716 0.14085391
-0.172231 0.819312 -0.334104 -0.57139975 -0.18238613 -0.8001485
-0.162464 0.791078 -0.351846 -0.57691216 0.8052309 -0.13702351
-0.14521 0.793415 -0.208712 -0.30169916 0.45952663 0.835352
-0.184684 0.762009 -0.196152 -0.39810732 0.76643836 0.50406635
-0.086327 0.812209 -0.211465 -0.1928633 0.8403462 0.5065787
-0.115236 0.837896 -0.222054 0.1428855 0.1298797 0.98118037
-0.12321 0.811864 -0.327105 -0.07192672 0.8687037 -0.4900821
-0.102999 0.844736 -0.288229 0.73173535 0.35561612 -0.5814641
-0.0787362 0.822102 -0.294366 -0.24480553 0.96900976 -0.033020828
