-2.056562 1.415748 4.869517 0.6660103 -0.20492698 0.7172413
-1.994062 1.345436 4.791392 0.6660103 -0.20492698 0.7172413
-1.931562 1.493873 4.775767 0.6660103 -0.20492698 0.7172413
-2.931562 1.415748 4.869517 -0.663037 -0.19288832 0.7233091
-2.962812 1.493873 4.861705 -0.663037 -0.19288832 0.7233091
-3.056562 1.493873 4.775767 -0.663037 -0.19288832 0.7233091
-1.947187 1.306373 4.682017 0.830101 -0.30708927 0.46543366
-1.869062 1.493873 4.666392 0.830101 -0.30708927 0.46543366
-2.994062 1.345436 4.791392 -0.82851946 -0.2990155 0.4734397
-3.119062 1.493873 4.666392 -0.82851946 -0.2990155 0.4734397
-2.1425 1.282936 4.822642 0.40809214 -0.8038155 0.43282953
-2.1425 1.228248 4.72108 0.40809214 -0.8038155 0.43282953
-2.845625 1.282936 4.822642 -0.4250628 -0.7792776 0.46048662
-3.040937 1.306373 4.682017 -0.4250628 -0.7792776 0.46048662
-2.1425 1.384498 4.885142 0.3713653 -0.4866192 0.79075253
-2.845625 1.384498 4.885142 -0.33848932 -0.54858375 0.76451343
-2.220625 1.415748 4.900767 -0.09918166 -0.5472211 0.83109087
-2.290937 1.345436 4.84608 -0.09918166 -0.5472211 0.83109087
-2.7675 1.415748 4.900767 0.039277907 -0.52369475 0.851
-2.337812 1.306373 4.75233 -0.25888872 -0.83879966 0.4789485
-2.697187 1.345436 4.84608 0.28370583 -0.84429115 0.4546244
-2.845625 1.228248 4.72108 0.28370583 -0.84429115 0.4546244
-2.353437 1.493873 4.84608 -0.7605717 -0.33995098 0.55314
-2.415937 1.493873 4.760142 -0.7605717 -0.33995098 0.55314
-2.634687 1.493873 4.84608 0.78241915 -0.32944068 0.5284782
-2.650312 1.306373 4.75233 0.78241915 -0.32944068 0.5284782
-2.251875 1.493873 4.900767 -0.46492553 -0.19575875 0.8634366
-2.73625 1.493873 4.900767 0.4767272 -0.19069088 0.85811895
-2.220625 1.579811 4.900767 -0.4822821 0.2030655 0.8521551
-2.290937 1.642311 4.84608 -0.4822821 0.2030655 0.8521551
-2.7675 1.579811 4.900767 0.46720287 0.16989101 0.8676741
-2.337812 1.689186 4.75233 -0.76835084 0.32929105 0.5488209
-2.697187 1.642311 4.84608 0.7655693 0.32234395 0.5567746
-2.572187 1.493873 4.760142 0.7655693 0.32234395 0.5567746
-2.1425 1.704811 4.822642 -0.24873647 0.8248906 0.50762737
-2.1425 1.767311 4.72108 -0.24873647 0.8248906 0.50762737
-2.845625 1.704811 4.822642 0.2559848 0.80734414 0.5316645
-2.650312 1.689186 4.75233 0.2559848 0.80734414 0.5316645
-2.1425 1.611061 4.885142 -0.10165 0.55182695 0.82774043
-2.845625 1.611061 4.885142 0.08213625 0.6023414 0.7940016
-2.056562 1.579811 4.869517 0.3860591 0.54462117 0.7445442
-1.994062 1.642311 4.791392 0.3860591 0.54462117 0.7445442
-2.931562 1.579811 4.869517 -0.33286357 0.5230684 0.78460264
-1.947187 1.689186 4.682017 0.40591428 0.7640735 0.5014233
-2.994062 1.642311 4.791392 -0.424568 0.77108705 0.47451735
-2.845625 1.767311 4.72108 -0.424568 0.77108705 0.47451735
-3.040937 1.689186 4.682017 -0.82507515 0.29678872 0.4807988
-2.025312 1.493873 4.861705 0.66170913 0.20262842 0.7218605
-2.04875 1.587623 4.885142 0.78158855 0.30583322 -0.5436777
-2.0175 1.493873 4.87733 0.78158855 0.30583322 -0.5436777
-2.970625 1.493873 4.87733 -0.8399554 0.34361622 -0.42000332
-2.1425 1.626686 4.90858 0.20365846 0.8146173 -0.5430671
-2.939375 1.587623 4.885142 -0.2073962 0.82956785 -0.518463
-2.228437 1.587623 4.924205 -0.43806952 0.7988312 -0.4122667
-2.845625 1.626686 4.90858 0.40561652 0.7605348 -0.5070129
-2.2675 1.493873 4.924205 -0.7861495 0.3275663 -0.52408904
-2.759687 1.587623 4.924205 0.86424124 0.31426778 -0.39283952
-2.228437 1.407936 4.924205 -0.832853 -0.37857628 -0.40377688
-2.720625 1.493873 4.924205 0.7894781 -0.31579125 -0.526308
-2.1425 1.368873 4.90858 -0.43204743 -0.75039 -0.5002498
-2.759687 1.407936 4.924205 0.40824828 -0.8165037 -0.40823406
-2.04875 1.407936 4.885142 0.214308 -0.826584 -0.52041423
-2.845625 1.368873 4.90858 -0.19773103 -0.8156277 -0.54374075
-2.939375 1.407936 4.885142 -0.75221324 -0.35630926 -0.5542733
-2.1425 1.493873 4.932017 0.40003613 -0.062347986 0.91437626
-2.845625 1.493873 4.932017 -0.40003613 -0.062347986 0.91437626
-2.33 0.321998 4.736705 0.10540811 -0.8432773 0.5270415
-2.494062 0.306373 4.744517 0.10540811 -0.8432773 0.5270415
-2.494062 0.267311 4.682017 0.10540811 -0.8432773 0.5270415
-2.658125 0.321998 4.736705 -0.13668968 -0.87482935 0.46474692
-2.67375 0.282936 4.65858 -0.13668968 -0.87482935 0.46474692
-2.259687 0.337623 4.736705 0.19155575 -0.8620067 0.4693089
-2.314375 0.282936 4.65858 0.19155575 -0.8620067 0.4693089
-2.728437 0.337623 4.736705 -0.23028699 -0.86557156 0.444695
-2.822187 0.306373 4.62733 -0.23028699 -0.86557156 0.444695
-2.228437 0.431373 4.767955 0.62303454 -0.4262868 0.65582585
-2.165937 0.306373 4.62733 0.62303454 -0.4262868 0.65582585
-2.759687 0.431373 4.767955 -0.548634 -0.48877656 0.6783054
-2.86125 0.361061 4.635142 -0.548634 -0.48877656 0.6783054
-2.244062 0.548561 4.791392 0.7897966 -0.01731609 0.6131243
-2.126875 0.361061 4.635142 0.7897966 -0.01731609 0.6131243
-2.744062 0.548561 4.791392 -0.7561444 -0.06964781 0.650688
-2.845625 0.556373 4.674205 -0.7561444 -0.06964781 0.650688
-2.283125 0.806373 4.81483 0.7527713 0.054417536 0.656029
-2.1425 0.556373 4.674205 0.7527713 0.054417536 0.656029
-2.705 0.806373 4.81483 -0.80146635 0.12143556 0.58558095
-2.806562 0.814186 4.674205 -0.80146635 0.12143556 0.58558095
-2.056562 1.111061 4.635142 0.43589577 -0.6882515 0.57991797
-2.095625 1.204811 4.775767 0.43589577 -0.6882515 0.57991797
-2.369062 1.150123 4.916392 0.43589577 -0.6882515 0.57991797
-2.931562 1.111061 4.635142 -0.22985353 -0.89604014 0.3798413
-2.697187 1.064186 4.666392 -0.22985353 -0.89604014 0.3798413
-2.619062 1.150123 4.916392 -0.22985353 -0.89604014 0.3798413
-1.86125 1.212623 4.642955 0.41774225 -0.5751245 0.70336556
-1.876875 1.306373 4.728892 0.41774225 -0.5751245 0.70336556
-3.126875 1.212623 4.642955 -0.35569406 -0.7290208 0.5848166
-2.8925 1.204811 4.775767 -0.35569406 -0.7290208 0.5848166
-1.665937 1.400123 4.549205 0.68983424 -0.41458866 0.5935022
-1.7675 1.454811 4.705455 0.68983424 -0.41458866 0.5935022
-3.322187 1.400123 4.549205 -0.68908626 -0.423921 0.5877509
-3.11125 1.306373 4.728892 -0.68908626 -0.423921 0.5877509
-1.634687 1.681373 4.697642 0.5537039 -0.29776984 0.77765363
-1.751875 1.626686 4.760142 0.5537039 -0.29776984 0.77765363
-3.353437 1.681373 4.697642 -0.70284957 -0.39153445 0.5938883
-3.220625 1.454811 4.705455 -0.70284957 -0.39153445 0.5938883
-1.783125 1.736061 4.728892 0.82267195 0.36062148 0.4395032
-1.806562 1.665748 4.830455 0.82267195 0.36062148 0.4395032
-3.205 1.736061 4.728892 -0.31269565 0.34247428 0.88596433
-3.23625 1.626686 4.760142 -0.31269565 0.34247428 0.88596433
-2.001875 1.853248 4.791392 0.50414145 0.64483404 0.57448274
-2.056562 1.798561 4.900767 0.50414145 0.64483404 0.57448274
-2.98625 1.853248 4.791392 -0.50905704 0.6482383 0.56625783
-3.181562 1.665748 4.830455 -0.50905704 0.6482383 0.56625783
-2.17375 2.009498 4.838267 0.5810105 0.5105853 0.6338213
-2.181562 1.892311 4.93983 0.5810105 0.5105853 0.6338213
-2.814375 2.009498 4.838267 -0.63043255 0.5207923 0.57561284
-2.931562 1.798561 4.900767 -0.63043255 0.5207923 0.57561284
-2.337812 1.970436 4.861705 -0.037141208 0.66850096 0.74278337
-2.290937 1.868873 4.955455 -0.037141208 0.66850096 0.74278337
-2.650312 1.970436 4.861705 0.048589565 0.6560086 0.7531877
-2.806562 1.892311 4.93983 0.048589565 0.6560086 0.7531877
-2.431562 1.743873 4.853892 -0.7386337 0.3768036 0.5589627
-2.3925 1.681373 4.947642 -0.7386337 0.3768036 0.5589627
-2.556562 1.743873 4.853892 0.71035403 0.27154616 0.6493534
-2.697187 1.868873 4.955455 0.71035403 0.27154616 0.6493534
-2.494062 1.681373 4.84608 -0.57735026 0.57735026 0.57735026
-2.494062 1.603248 4.924205 -0.57735026 0.57735026 0.57735026
-2.595625 1.681373 4.947642 0.60131353 0.5261532 0.6013192
-2.244062 1.720436 4.861705 0.5364059 -0.3230435 0.77968687
-2.744062 1.720436 4.861705 -0.50702596 -0.6280964 0.59027076
-2.658125 1.665748 4.87733 -0.50702596 -0.6280964 0.59027076
-2.165937 1.728248 4.84608 0.2224236 -0.46765473 0.85546875
-2.822187 1.728248 4.84608 -0.21804906 -0.47099403 0.8547627
-2.92375 1.689186 4.822642 0.034834802 -0.57923675 0.81441474
-2.064375 1.689186 4.822642 -0.07701756 -0.57586294 0.81391037
-3.095625 1.626686 4.767955 0.08990465 -0.7843173 0.61381054
-1.8925 1.626686 4.767955 0.027886914 -0.8644563 0.5019338
-3.134687 1.548561 4.75233 -0.054671004 -0.16946843 0.984018
-1.853437 1.548561 4.75233 0.16867824 -0.31274855 0.93473846
-3.119062 1.439186 4.75233 -0.42598283 -0.060854692 0.90268224
-1.869062 1.439186 4.75233 0.4349702 -0.18124089 0.8820163
-2.98625 1.314186 4.775767 -0.3351671 -0.18282028 0.9242509
-2.001875 1.314186 4.775767 0.32227638 -0.2762369 0.90544516
-2.869062 1.267311 4.807017 -0.35788602 -0.30675945 0.8819389
-2.119062 1.267311 4.807017 0.4815445 -0.24077429 0.8426996
-2.697187 1.345436 4.84608 -0.30694714 0.21128985 0.92797637
-2.33 1.392311 4.853892 -0.2921563 0.28288254 0.91357654
-2.494062 1.298561 4.830455 -0.2921563 0.28288254 0.91357654
-2.658125 1.392311 4.853892 -0.38690096 0.1714146 0.90604895
-2.369062 1.556373 4.869517 0.18540026 -0.49557766 0.8485455
-2.619062 1.556373 4.869517 -0.681881 -0.29145545 0.6708889
-2.494062 1.462623 4.869517 0.054738402 -0.3619056 0.9306063
-2.36125 1.462623 4.861705 0.054738402 -0.3619056 0.9306063
-2.626875 1.462623 4.861705 -0.38634765 -0.044570692 0.92127573
-2.494062 0.361061 4.791392 0.09766397 -0.6476768 0.7556299
-2.556562 0.368873 4.799205 -0.020346204 -0.7836843 0.620826
-2.431562 0.368873 4.799205 0.14704224 -0.6616946 0.7352135
-2.61125 0.415748 4.81483 -0.20738985 -0.51847714 0.82956064
-2.376875 0.415748 4.81483 0.31426877 -0.39283693 0.864242
-2.603437 0.532936 4.838267 -0.31280878 -0.16617368 0.9351668
-2.415937 0.806373 4.853892 0.33204657 -0.007298632 0.9432348
-2.376875 0.564186 4.838267 0.33204657 -0.007298632 0.9432348
-2.572187 0.806373 4.853892 -0.2818837 -0.04442179 0.9584197
-2.61125 0.564186 4.838267 -0.35952777 -0.089887425 0.9287949
-2.494062 0.923561 4.84608 0.0 0.06651469 0.9977854
-2.494062 0.806373 4.853892 0.0 0.06651469 0.9977854
-2.58 0.962623 4.84608 0.023217373 0.051079124 0.99842465
-2.494062 0.571998 4.838267 0.0 -0.066519015 0.99778515
-2.384687 0.532936 4.838267 0.0 -0.0 1.0
-2.494062 0.486061 4.838267 -0.0 0.0 1.0
-2.36125 1.025123 4.900767 0.7440797 -0.65821266 0.11446144
-2.400312 0.978248 4.885142 0.7440797 -0.65821266 0.11446144
-2.408125 0.962623 4.84608 0.7440797 -0.65821266 0.11446144
-2.626875 1.025123 4.900767 -0.84733915 -0.5119276 -0.14123182
-2.619062 1.025123 4.853892 -0.84733915 -0.5119276 -0.14123182
-2.384687 1.118873 4.885142 0.9635201 0.21411231 -0.16057688
-2.369062 1.025123 4.853892 0.9635201 0.21411231 -0.16057688
-2.603437 1.118873 4.885142 -0.9256276 0.24920441 -0.28479946
-2.595625 1.103248 4.84608 -0.9256276 0.24920441 -0.28479946
-2.455 1.126686 4.885142 0.10183417 0.91645783 -0.38695592
-2.3925 1.103248 4.84608 0.10183417 0.91645783 -0.38695592
-2.533125 1.126686 4.885142 -0.06926789 0.9004319 -0.42944673
-2.494062 1.111061 4.84608 -0.06926789 0.9004319 -0.42944673
-2.494062 1.064186 4.900767 -0.6904585 0.54922295 0.47076663
-2.494062 1.056373 4.853892 1.0 0.0 0.0
-2.494062 0.931373 4.885142 0.43193448 -0.86386895 0.25915858
-2.415937 1.001686 4.90858 0.28735146 -0.5746959 0.7662596
-2.494062 0.962623 4.90858 0.28735146 -0.5746959 0.7662596
-2.587812 0.978248 4.885142 -0.2873513 -0.5747026 0.7662546
-2.494062 1.048561 4.932017 -0.5207066 0.6153937 0.59173924
-2.447187 1.103248 4.916392 -0.5207066 0.6153937 0.59173924
-2.400312 1.095436 4.916392 0.12699375 0.76200897 0.634992
-2.540937 1.103248 4.916392 -0.08971766 0.80740416 0.5831374
-2.384687 1.025123 4.932017 0.7638916 0.29706433 0.57290703
-2.587812 1.095436 4.916392 -0.75324965 0.2869558 0.5918373
-2.603437 1.025123 4.932017 -0.6045451 -0.6549331 0.45341805
-2.33 1.009498 4.81483 0.5819132 -0.36369684 0.7273937
-2.314375 0.939186 4.81483 0.33191332 0.07375901 0.9404218
-2.658125 1.009498 4.81483 -0.54598314 -0.4310312 0.718411
-2.67375 0.939186 4.81483 -0.3230712 0.031135686 0.94586235
-2.23625 0.939186 4.65858 0.8752546 0.20594151 0.4376273
-2.751875 0.939186 4.65858 -0.7356965 0.39099655 0.5530572
-2.259687 1.001686 4.65858 0.8972995 0.19940124 0.39381805
-2.728437 1.001686 4.65858 -0.84799653 0.31800514 0.42399827
-2.494062 0.478248 4.822642 0.25241914 -0.86545265 0.43275437
-2.400312 0.509498 4.830455 0.25241914 -0.86545265 0.43275437
-2.587812 0.509498 4.830455 -0.17831863 -0.41607708 0.8916738
-2.400312 0.431373 4.81483 -0.19241615 -0.19245139 0.9622569
-2.587812 0.431373 4.81483 0.13531363 -0.20297457 0.9697894
-2.447187 0.384498 4.791392 -0.1881499 -0.2822191 0.9407189
-2.540937 0.384498 4.791392 0.3569246 0.10709088 0.92797434
-2.494062 0.376686 4.791392 -0.06551182 0.39309642 0.9171605
-2.447187 0.400123 4.736705 -0.15822493 0.9494111 0.27126268
-2.494062 0.392311 4.736705 -0.15822493 0.9494111 0.27126268
-2.400312 0.439186 4.744517 -0.6461637 0.75853044 0.08428605
-2.540937 0.400123 4.736705 0.73960125 0.6471487 0.18490125
-2.400312 0.501686 4.767955 -1.0 0.0 0.0
-2.587812 0.439186 4.744517 1.0 0.0 0.0
-2.494062 0.470436 4.760142 0.3051412 -0.9449542 0.11811162
-2.587812 0.501686 4.767955 -0.30514142 -0.9449541 0.11811205
-2.306562 1.407936 4.87733 -0.5989906 -0.24503483 0.7623439
-2.322187 1.470436 4.885142 -0.5989906 -0.24503483 0.7623439
-2.665937 1.470436 4.885142 0.44813487 -0.29302087 0.8445791
-2.314375 1.548561 4.885142 -0.5214312 0.052139938 0.8516989
-2.67375 1.548561 4.885142 0.28686056 -0.1032675 0.9523901
-2.283125 1.626686 4.885142 -0.2595024 0.10380097 0.96014786
-2.705 1.626686 4.885142 0.17171021 -0.009043186 0.985106
-2.290937 1.345436 4.84608 -0.66841024 -0.45953143 0.5848577
-2.2675 1.361061 4.885142 -0.66841024 -0.45953143 0.5848577
-2.681562 1.407936 4.87733 0.4332401 -0.4873769 0.75813377
-2.119062 1.314186 4.84608 -4.9355917e-06 -0.640189 0.76821744
-2.720625 1.361061 4.885142 0.26547968 -0.82963353 0.49115044
-2.0175 1.353248 4.822642 0.39722246 -0.635555 0.6620302
-2.869062 1.314186 4.84608 -0.41860387 -0.5813998 0.69767123
-1.915937 1.446998 4.78358 0.5167841 -0.21452157 0.82880324
-2.970625 1.353248 4.822642 -0.5914149 -0.51149493 0.6233789
-1.908125 1.540748 4.791392 0.5882185 -0.11570886 0.8003815
-3.072187 1.446998 4.78358 -0.5440233 -0.07771762 0.83546317
-1.931562 1.603248 4.799205 0.5773586 0.1154621 0.8082856
-3.08 1.540748 4.791392 -0.565684 0.11965974 0.81589407
-2.072187 1.650123 4.87733 0.521382 0.6573974 0.54404914
-3.056562 1.603248 4.799205 -0.4082453 0.40824246 0.8165009
-2.158125 1.681373 4.861705 -0.061284523 0.30642635 0.94991946
-2.915937 1.650123 4.87733 -0.40630037 0.71509135 0.5688273
-2.220625 1.673561 4.87733 0.17719541 0.389823 0.9036813
-2.83 1.681373 4.861705 -0.15241171 0.33530354 0.9297001
-2.33 1.665748 4.87733 -0.012939196 0.1811377 0.98337257
-2.7675 1.673561 4.87733 0.021879137 0.30628923 0.95168704
-2.259687 1.611061 4.861705 0.3552586 -0.5738821 0.73786896
-2.212812 1.650123 4.869517 0.3552586 -0.5738821 0.73786896
-2.775312 1.650123 4.869517 -0.28043446 -0.2181288 0.93476003
-2.158125 1.657936 4.853892 0.29633814 -0.21167305 0.93133146
-2.83 1.657936 4.853892 -0.26667747 -0.30479816 0.91432005
-2.08 1.642311 4.853892 -0.063124046 -0.3156202 0.9467836
-2.908125 1.642311 4.853892 0.37659618 -0.8339007 0.4034661
-1.962812 1.587623 4.78358 -0.2015892 -0.9070858 0.36953646
-3.025312 1.587623 4.78358 -0.0823387 -0.7822176 0.61754024
-1.939375 1.532936 4.775767 -0.3207105 -0.26726663 0.90868765
-3.04875 1.532936 4.775767 0.38100052 -0.25400963 0.8889981
-1.947187 1.462623 4.775767 -0.45675725 0.05074659 0.88814276
-3.040937 1.462623 4.775767 0.26919138 -0.05767431 0.96135825
-2.033125 1.368873 4.807017 -0.053248227 0.35936946 0.93167496
-2.955 1.368873 4.807017 0.22158378 0.5697781 0.79136187
-2.119062 1.337623 4.830455 -0.04867638 0.6815109 0.7301873
-2.869062 1.337623 4.830455 0.021327367 0.5545818 0.83185583
-2.251875 1.376686 4.861705 0.33782396 0.52209634 0.78312856
-2.73625 1.376686 4.861705 -0.37779114 0.634144 0.6746372
-2.290937 1.423561 4.853892 0.49877664 0.52995497 0.685835
-2.697187 1.423561 4.853892 -0.49879086 0.5299605 0.6858203
-2.29875 1.548561 4.861705 0.7381939 -0.46137685 0.4921393
-2.728437 1.611061 4.861705 -0.6014437 -0.24057749 0.761832
-2.29875 1.478248 4.853892 0.8060694 -0.065359205 0.5882009
-2.689375 1.548561 4.861705 -0.8291795 -0.08292301 0.5527976
-2.689375 1.478248 4.853892 -0.77998155 0.118182346 0.6145418
-2.384687 1.712623 4.713267 -0.40430877 0.8550184 -0.32477367
-2.494062 1.657936 4.705455 -0.40430877 0.8550184 -0.32477367
-2.29875 1.915748 4.72108 -0.8465084 0.37275633 -0.3801004
-2.603437 1.712623 4.713267 0.8551861 0.36650833 -0.36650833
-2.158125 1.939186 4.697642 -0.21971968 0.8625877 -0.4557035
-2.689375 1.915748 4.72108 0.2663493 0.8710416 -0.41272816
-2.009687 1.806373 4.65858 0.59135324 0.748893 -0.29909962
-2.83 1.939186 4.697642 -0.5932469 0.74446625 -0.30631363
-1.814375 1.704811 4.59608 0.3653064 0.88331014 -0.29379317
-2.978437 1.806373 4.65858 -0.3714248 0.86845815 -0.32836568
-1.697187 1.657936 4.56483 0.285868 0.9116037 -0.29539514
-3.17375 1.704811 4.59608 -0.27894643 0.9180744 -0.281653
-1.720625 1.415748 4.478892 0.7964455 0.13229984 -0.5900604
-3.290937 1.657936 4.56483 -0.88728213 0.13429117 -0.44124407
-1.8925 1.251686 4.517955 0.5955021 -0.7123088 -0.37147474
-3.2675 1.415748 4.478892 -0.45271653 -0.7285857 -0.51401424
-2.056562 1.157936 4.572642 0.24904346 -0.77479386 -0.5810954
-3.095625 1.251686 4.517955 -0.4407792 -0.81948066 -0.36628562
-2.494062 0.767311 4.385142 0.16490814 -0.66441226 -0.7289457
-2.314375 0.837623 4.361705 0.16490814 -0.66441226 -0.7289457
-2.369062 0.712623 4.463267 0.16490814 -0.66441226 -0.7289457
-2.494062 0.681373 4.424205 -0.3616753 -0.38579232 -0.8487374
-2.619062 0.712623 4.463267 -0.3616753 -0.38579232 -0.8487374
-2.353437 0.493873 4.47108 0.30110487 -0.012548462 -0.95350844
-2.494062 0.446998 4.447642 -0.1951826 -0.097587995 -0.97589976
-2.634687 0.493873 4.47108 -0.1951826 -0.097587995 -0.97589976
-2.33 0.306373 4.541392 0.25624773 -0.311153 -0.9151617
-2.494062 0.275123 4.56483 0.010731527 -0.5633059 -0.82617867
-2.658125 0.306373 4.541392 0.010731527 -0.5633059 -0.82617867
-2.165937 0.337623 4.50233 0.13405181 -0.96814203 -0.21149695
-2.822187 0.337623 4.50233 -0.101588964 -0.9651234 -0.24128085
-2.205 0.540748 4.486705 0.9801799 0.19219448 0.04804862
-2.783125 0.540748 4.486705 -0.60821027 -0.33140376 -0.7212848
-2.244062 0.751686 4.494517 0.94406796 0.1849357 -0.27300987
-2.744062 0.751686 4.494517 -0.9207768 0.1460101 -0.3617335
-2.728437 0.900123 4.510142 -0.9093764 0.1370657 -0.39274362
-2.67375 0.837623 4.361705 -0.9093764 0.1370657 -0.39274362
-2.259687 0.900123 4.510142 0.918441 0.13578598 -0.3715216
-2.275312 0.970436 4.53358 0.94569033 0.26727122 -0.1850291
-2.283125 1.025123 4.572642 0.94569033 0.26727122 -0.1850291
-2.712812 0.970436 4.53358 -0.9172833 0.34398824 -0.20065747
-2.290937 1.079811 4.603892 0.950148 0.2455376 -0.19217204
-2.697187 1.079811 4.603892 -0.894509 0.43370214 0.108425535
-2.158125 1.306373 3.43983 0.37268648 -0.47590044 -0.7966326
-2.150312 1.103248 3.56483 0.37268648 -0.47590044 -0.7966326
-2.494062 1.056373 3.432017 0.37268648 -0.47590044 -0.7966326
-2.83 1.306373 3.43983 -0.3692771 -0.47118363 -0.80101216
-2.494062 1.321998 3.275767 -0.3692771 -0.47118363 -0.80101216
-2.197187 0.939186 3.838267 0.32627064 -0.8342 -0.44458723
-2.494062 0.868873 3.75233 0.32627064 -0.8342 -0.44458723
-2.837812 1.103248 3.56483 -0.29859427 -0.8236442 -0.4821325
-2.283125 0.861061 4.267955 0.30309242 -0.9464207 -0.111457594
-2.494062 0.790748 4.291392 0.30309242 -0.9464207 -0.111457594
-2.790937 0.939186 3.838267 -0.26597518 -0.9540129 -0.13826291
-2.705 0.861061 4.267955 -0.28421092 -0.9301367 -0.23252943
-1.759687 1.204811 4.174205 0.86152107 -0.337913 0.37894097
-1.6425 1.486061 4.15858 0.86152107 -0.337913 0.37894097
-3.345625 1.486061 4.15858 -0.6916474 -0.72216374 0.010169688
-2.033125 1.689186 3.400767 0.41890392 -0.22651276 -0.8793245
-2.955 1.689186 3.400767 -0.29502577 -0.04544702 -0.9544079
-2.494062 1.814186 3.25233 -0.29502577 -0.04544702 -0.9544079
-2.040937 2.103248 4.338267 0.11191901 0.96257794 0.24681523
-2.040937 2.181373 4.03358 0.11191901 0.96257794 0.24681523
-2.494062 2.236061 4.025767 0.11191901 0.96257794 0.24681523
-2.947187 2.103248 4.338267 -0.12718864 0.9657801 0.22603524
-2.494062 2.150123 4.392955 -0.12718864 0.9657801 0.22603524
-2.040937 2.118873 3.72108 0.13732076 0.9712913 -0.1942584
-2.494062 2.150123 3.557017 0.13732076 0.9712913 -0.1942584
-2.947187 2.181373 4.03358 -0.12092797 0.9763879 -0.17900604
-2.947187 2.118873 3.72108 -0.30003363 0.6408636 -0.70659304
-1.7675 1.657936 4.43983 0.565953 0.760493 -0.31835127
-1.86125 1.704811 4.385142 0.565953 0.760493 -0.31835127
-3.126875 1.704811 4.385142 -0.35219094 0.9326501 -0.078264475
-1.697187 1.814186 4.228892 0.34316808 0.69642556 0.63025963
-1.853437 1.954811 4.15858 0.34316808 0.69642556 0.63025963
-3.220625 1.657936 4.43983 0.09439035 0.6701383 0.73620987
-3.134687 1.954811 4.15858 0.09439035 0.6701383 0.73620987
-1.697187 1.868873 3.986705 0.5837693 0.79197985 0.17883313
-1.853437 2.001686 3.90858 0.5837693 0.79197985 0.17883313
-3.290937 1.814186 4.228892 -0.62548226 0.76687455 0.14378947
-3.134687 2.001686 3.90858 -0.62548226 0.76687455 0.14378947
-1.697187 1.790748 3.744517 0.71591413 0.66447204 -0.2143454
-1.853437 1.931373 3.65858 0.71591413 0.66447204 -0.2143454
-3.290937 1.868873 3.986705 -0.6901291 0.6966568 -0.1959364
-3.134687 1.931373 3.65858 -0.6901291 0.6966568 -0.1959364
-1.876875 1.579811 3.517955 0.63040775 0.2517018 -0.73432434
-3.11125 1.579811 3.517955 -0.71044177 0.13636856 -0.6904173
-3.2675 1.517311 3.666392 -0.71044177 0.13636856 -0.6904173
-3.290937 1.790748 3.744517 -0.71044177 0.13636856 -0.6904173
-2.033125 1.775123 4.53358 0.6771956 0.48237288 0.55562806
-2.955 1.775123 4.53358 -0.7766261 0.33576784 0.5330215
-2.494062 1.821998 4.674205 -0.28543004 0.6237183 0.727671
-1.634687 1.571998 4.057017 0.9455951 0.013327751 0.3250727
-3.353437 1.571998 4.057017 -0.93336046 0.23539759 0.2709728
-1.67375 1.579811 3.900767 0.9969802 0.07574914 0.017104546
-3.314375 1.579811 3.900767 -0.90192825 0.37931246 -0.20651285
-2.064375 1.056373 3.892955 0.6374066 -0.7650795 0.09146672
-2.087812 1.079811 4.25233 0.6374066 -0.7650795 0.09146672
-2.900312 1.079811 4.25233 -0.74664587 -0.66461146 0.028489878
-1.900312 1.126686 3.93983 0.3720048 -0.92437226 0.08454712
-3.228437 1.204811 4.174205 -0.37226754 -0.9242504 0.08472303
-3.087812 1.126686 3.93983 -0.37226754 -0.9242504 0.08472303
-2.931562 1.157936 4.572642 -0.54801804 -0.77395976 0.31727344
-2.705 1.025123 4.572642 -0.49928606 -0.8517184 0.15902561
-1.853437 1.243873 3.674205 0.5236098 -0.32899046 -0.785874
-2.009687 1.275123 3.557017 0.5236098 -0.32899046 -0.785874
-3.134687 1.243873 3.674205 -0.58806187 -0.30701134 -0.7482828
-2.92375 1.056373 3.892955 -0.4462621 -0.84518737 -0.2941231
-2.978437 1.275123 3.557017 -0.49720383 -0.44077486 -0.7473325
-1.603437 1.657936 3.869517 0.32444188 0.48666382 0.8111077
-1.572187 1.611061 3.885142 0.32444188 0.48666382 0.8111077
-1.478437 1.665748 3.81483 0.32444188 0.48666382 0.8111077
-3.384687 1.657936 3.869517 -0.36909565 0.28553307 0.8844429
-3.5175 1.728248 3.791392 -0.36909565 0.28553307 0.8844429
-3.509687 1.665748 3.81483 -0.36909565 0.28553307 0.8844429
-1.306562 1.689186 3.713267 0.5032937 0.0479312 0.86278504
-1.259687 1.759498 3.682017 0.5032937 0.0479312 0.86278504
-3.728437 1.759498 3.682017 -0.41019097 0.27483115 0.869604
-1.228437 1.540748 3.697642 0.18166035 -0.007897653 0.9833296
-1.1425 1.571998 3.682017 0.18166035 -0.007897653 0.9833296
-3.681562 1.689186 3.713267 -0.31883866 0.19927499 0.92662364
-3.845625 1.571998 3.682017 -0.31883866 0.19927499 0.92662364
-1.283125 1.329811 3.697642 0.29246965 -0.07582646 0.95326376
-1.212812 1.306373 3.674205 0.29246965 -0.07582646 0.95326376
-3.759687 1.540748 3.697642 -0.20761181 -0.0836203 0.9746307
-3.775312 1.306373 3.674205 -0.20761181 -0.0836203 0.9746307
-1.462812 1.212623 3.799205 0.5847111 -0.21976312 0.7809078
-1.455 1.150123 3.775767 0.5847111 -0.21976312 0.7809078
-3.705 1.329811 3.697642 -0.33975264 0.0823673 0.93690115
-3.533125 1.150123 3.775767 -0.33975264 0.0823673 0.93690115
-1.665937 1.181373 3.97108 0.62464815 -0.41215193 0.6632838
-1.720625 1.111061 3.978892 0.62464815 -0.41215193 0.6632838
-3.525312 1.212623 3.799205 -0.6132437 -0.20899908 0.7617425
-3.2675 1.111061 3.978892 -0.6132437 -0.20899908 0.7617425
-1.455 1.251686 3.736705 0.61377597 0.40919718 0.67515683
-1.61125 1.228248 3.892955 0.61377597 0.40919718 0.67515683
-3.533125 1.251686 3.736705 -0.3279915 0.7821144 0.5298289
-3.322187 1.181373 3.97108 -0.3279915 0.7821144 0.5298289
-1.306562 1.345436 3.65858 -0.26933065 0.83143103 0.48598707
-3.681562 1.345436 3.65858 0.2641936 0.8303345 0.49065915
-1.259687 1.501686 3.65858 -0.78850454 0.23655137 0.5677182
-3.728437 1.501686 3.65858 0.85761046 0.22234201 0.4637547
-1.322187 1.611061 3.666392 -0.52417636 -0.35482383 0.77417004
-3.665937 1.611061 3.666392 0.52567434 -0.35790452 0.77173233
-1.470625 1.595436 3.744517 0.43897474 -0.5252037 0.7290146
-3.5175 1.595436 3.744517 -0.46631196 -0.5990809 0.650888
-1.54875 1.556373 3.81483 0.71434253 -0.4166944 0.5622104
-3.415937 1.611061 3.885142 -0.6883545 -0.4732489 0.5497305
-1.775312 1.228248 3.932017 0.6301998 -0.7657684 0.12824588
-1.7675 1.251686 4.03358 0.6301998 -0.7657684 0.12824588
-3.220625 1.251686 4.03358 -0.75071543 -0.6130885 -0.2460667
-3.212812 1.228248 3.932017 0.17880465 0.29233846 0.9394504
-1.650312 1.540748 3.892955 -0.120383084 0.24077353 0.9630867
-3.337812 1.540748 3.892955 -0.37113237 0.037118223 0.9278378
-1.681562 1.236061 3.830455 0.023355838 0.9949029 0.09809536
-3.376875 1.228248 3.892955 -0.13779095 0.8037937 0.57873076
-1.775312 1.290748 3.916392 0.71773845 0.16888064 0.67552257
-3.212812 1.290748 3.916392 -0.447954 -0.447954 0.77374053
-3.337812 1.267311 3.830455 -0.447954 -0.447954 0.77374053
-3.306562 1.236061 3.830455 -0.447954 -0.447954 0.77374053
-1.650312 1.267311 3.830455 0.5801963 0.193405 0.7911806
-1.67375 1.337623 3.830455 0.5801963 0.193405 0.7911806
-3.251875 1.345436 3.830455 -0.10219965 0.8175473 0.56672
-3.314375 1.337623 3.830455 -0.10219965 0.8175473 0.56672
-1.697187 1.454811 3.892955 0.9007825 -0.40749726 0.15012251
-1.73625 1.345436 3.830455 0.9007825 -0.40749726 0.15012251
-3.290937 1.454811 3.892955 -0.5533701 -0.5533701 0.62254566
-3.33 1.423561 3.830455 -0.5533701 -0.5533701 0.62254566
-1.658125 1.423561 3.830455 0.58151543 -0.52165735 0.62427026
-1.603437 1.493873 3.838267 0.58151543 -0.52165735 0.62427026
-3.384687 1.493873 3.838267 -0.57238585 -0.3122122 0.75822026
-3.439375 1.556373 3.81483 -0.55968225 -0.55331373 0.6169276
-1.603437 1.486061 3.78358 0.67674965 -0.72881466 0.10411093
-1.540937 1.540748 3.760142 0.67674965 -0.72881466 0.10411093
-3.447187 1.540748 3.760142 -0.7723464 -0.5730415 0.2740522
-1.650312 1.423561 3.78358 0.79298127 -0.594736 0.13217363
-3.384687 1.486061 3.78358 -0.7815002 -0.617635 0.088228956
-1.728437 1.345436 3.78358 0.7022462 -0.7022462 0.117049955
-3.337812 1.423561 3.78358 -0.7022475 -0.7022475 0.11703411
-1.665937 1.329811 3.78358 0.24077208 0.96308833 -0.12037318
-3.259687 1.345436 3.78358 -0.1240157 0.992065 0.02066802
-1.6425 1.267311 3.78358 0.92513657 0.3469174 0.15417767
-3.322187 1.329811 3.78358 -0.9434582 0.3144818 0.104823
-1.681562 1.236061 3.78358 0.62470084 -0.7808642 0.0
-3.345625 1.267311 3.78358 -0.70224625 -0.70224625 0.11704819
-1.61125 1.236061 3.838267 -0.10934048 0.98401314 0.14058065
-3.306562 1.236061 3.78358 -0.110437445 0.9938831 0.0
-1.455 1.579811 3.68983 0.58665425 -0.7526744 0.29886135
-3.533125 1.579811 3.68983 -0.66183347 -0.6493339 0.3746225
-1.306562 1.595436 3.619517 0.25288075 -0.90878433 0.3319072
-3.681562 1.595436 3.619517 -0.29680666 -0.87186617 0.3895576
-1.23625 1.493873 3.611705 -0.82221365 -0.56255996 -0.08655122
-3.751875 1.493873 3.611705 0.82710874 -0.44843367 -0.33881927
-1.283125 1.337623 3.619517 -0.85376847 0.23284777 -0.4656837
-3.705 1.337623 3.619517 0.80961436 0.24288431 -0.53435177
-1.447187 1.251686 3.682017 -0.5433052 0.69853884 -0.46568543
-3.540937 1.251686 3.682017 0.56213963 0.82313484 -0.080300055
-3.376875 1.236061 3.838267 0.0070665064 0.9899237 0.14142507
-1.556562 1.314186 3.767955 0.17377304 0.009659999 0.9847383
-1.603437 1.361061 3.775767 0.17377304 0.009659999 0.9847383
-3.384687 1.361061 3.775767 -0.10461018 0.039229617 0.9937393
-1.494062 1.376686 3.736705 0.4134467 0.041347824 0.90958905
-1.533125 1.423561 3.75233 0.4134467 0.041347824 0.90958905
-3.431562 1.314186 3.767955 -0.24609731 0.08519149 0.9654939
-3.455 1.423561 3.75233 -0.24609731 0.08519149 0.9654939
-1.439375 1.439186 3.72108 0.23680407 0.03552563 0.97090775
-1.478437 1.486061 3.728892 0.23680407 0.03552563 0.97090775
-3.494062 1.376686 3.736705 -0.38299763 0.011267264 0.9236806
-3.509687 1.486061 3.728892 -0.38299763 0.011267264 0.9236806
-1.384687 1.462623 3.713267 0.12203335 0.045763668 0.99147046
-1.408125 1.525123 3.713267 0.12203335 0.045763668 0.99147046
-3.54875 1.439186 3.72108 -0.21035273 0.012381509 0.9775471
-3.58 1.525123 3.713267 -0.21035273 0.012381509 0.9775471
-3.603437 1.462623 3.713267 -0.5786069 -0.13335297 0.804631
-1.705 1.126686 3.775767 0.110451266 -0.9915678 -0.06777819
-1.455 1.165748 3.611705 0.110451266 -0.9915678 -0.06777819
-3.533125 1.165748 3.611705 -0.07369241 -0.99278873 -0.094551586
-1.181562 1.306373 3.572642 0.44608456 -0.89095926 -0.08485351
-3.806562 1.306373 3.572642 -0.58548945 -0.7904101 0.18014976
-1.126875 1.548561 3.603892 0.9264158 -0.2459685 0.28504968
-3.86125 1.548561 3.603892 -0.93088955 -0.25413123 0.26241574
-1.244062 1.720436 3.557017 0.8266638 0.5626854 -0.0034694078
-3.744062 1.720436 3.557017 -0.846494 0.5290609 -0.059517767
-1.470625 1.689186 3.619517 -0.21456677 0.9242945 -0.31565934
-3.5175 1.689186 3.619517 0.25106996 0.94389886 -0.21451986
-1.470625 1.728248 3.791392 -0.41958466 0.88514453 -0.20116675
-1.634687 1.634498 3.72108 -0.41958466 0.88514453 -0.20116675
-3.353437 1.634498 3.72108 0.48409626 0.8742685 -0.036130313
